ply
format ascii 1.0
element vertex 1587
property float x
property float y
property float z
end_header
28.260633 20.445189 -20.309742
28.183121 8.057483 -15.642216
37.630363 18.455555 -15.566811
36.175144 24.274473 -16.570566
28.119997 20.625965 -17.148451
35.149204 -2.582669 -32.303520
34.513050 -24.234848 -12.241021
32.613129 24.373219 -13.566397
34.185471 -15.362074 -31.814899
33.754032 -23.329632 -23.496885
28.401852 -7.050602 -21.865723
28.176857 -12.632225 -15.582376
32.317760 -6.319870 -32.785820
32.084343 -23.023304 -14.561271
28.219442 7.059953 -17.311142
28.297457 -8.289431 -26.037180
29.176680 -17.939230 -17.016445
30.822615 -17.785442 -20.479509
37.738823 -7.519886 -21.255705
38.144363 -13.040781 -14.598609
27.496885 1.722612 -18.388559
32.036724 -13.568933 -31.495546
32.055431 -23.350395 -22.223661
30.701653 23.547022 -22.902939
37.847683 19.046949 -8.781481
36.943180 13.659498 -31.277149
36.277428 17.782806 -31.443785
33.401344 11.218635 -31.861418
32.512802 11.457644 -31.865005
35.610409 17.854797 -31.021976
29.160830 11.490715 -31.583593
33.213470 -19.282476 -22.167583
33.871090 -12.951422 -27.299288
35.516239 -13.877682 -26.552519
27.433092 -23.341465 -21.894514
28.475107 -12.936381 -32.419991
29.839725 -14.353768 -27.263346
31.923395 18.149038 -30.916636
33.473061 16.135801 -31.653368
35.311657 16.677338 -29.914776
35.957897 17.052124 -32.248280
35.103546 17.117069 -32.617958
35.571693 17.425470 -30.389660
35.600193 -17.761806 -23.046495
35.833469 -14.202754 -26.265448
38.063469 -19.713072 -22.887836
37.686337 -13.756592 -28.387142
33.507351 -18.114494 -23.127047
33.827351 -14.496812 -27.711748
4.276380 12.769818 18.657925
29.474236 -23.565084 -26.070753
30.236570 -17.612411 -30.734108
34.228550 -24.112621 -22.759256
34.270569 -13.997483 -31.538111
30.205551 -23.322039 -25.276096
29.800449 -16.606522 -32.247116
28.156723 9.985246 -31.772705
28.955605 10.832558 -28.706945
28.683134 11.818458 -30.745930
37.593025 12.776478 -27.734529
30.722698 12.434781 -30.957972
36.831322 -19.820044 -18.407635
37.532631 -9.560674 -29.620350
37.456402 -19.805229 -16.005175
38.189739 -7.852952 -28.778545
36.670414 -23.158470 -25.922167
36.022324 -17.389200 -31.498966
32.594261 13.120750 -32.089684
34.001469 13.270661 -31.994789
32.951065 13.797485 -26.608133
29.414640 9.998796 -20.157270
37.238911 21.375874 -18.143026
27.797668 -8.444445 -31.624962
27.955847 -22.834641 -17.979620
28.162966 19.974854 -25.999544
30.379799 23.332476 -21.140293
32.350197 -22.068371 -26.283112
32.400204 -17.374123 -30.713760
28.481180 10.174632 -20.920900
32.461689 9.738420 -25.369219
38.288132 20.290388 -20.977182
35.114223 22.735126 -25.955128
36.463551 -6.237461 -32.200520
35.912998 -23.132179 -14.165772
28.288960 9.113732 -22.462444
27.678171 6.158239 -30.123011
28.481253 -12.563339 -29.648268
28.465841 -20.016176 -21.737356
28.715801 21.805386 -27.967838
28.953299 22.260798 -28.073963
36.589725 -20.684116 -29.424601
35.794113 -21.838041 -29.718925
10.721683 -5.000027 20.173702
29.565399 11.969646 -25.909189
37.186455 -5.893338 -24.469713
37.579876 -16.536903 -12.679131
33.466900 10.541306 -21.835108
33.160999 10.531924 -21.137136
35.568329 9.949185 -20.825535
37.892704 11.546685 -30.029394
36.347279 21.402798 -21.341419
28.533131 1.701216 -23.387056
28.434080 5.577044 -22.534668
27.776058 6.011688 -24.702023
29.769398 -11.874882 -25.877760
28.495689 -17.237879 -18.960546
31.131477 20.707041 -29.563282
30.823862 19.628239 -29.808773
27.835054 17.221710 -25.576880
34.064976 -11.810870 -20.216587
33.521687 -10.853610 -19.683031
28.082325 21.041039 -22.347477
31.899725 -16.132740 -26.914007
31.641762 -16.976513 -25.233219
30.122313 24.286474 -23.601789
32.764668 -9.776328 -20.909378
32.188545 -12.351481 -18.903845
32.711102 -11.967346 -32.111420
31.772308 -23.277817 -20.783484
32.924454 -14.466136 -32.320141
31.837519 -24.120575 -24.193790
29.126482 18.122042 -17.687489
37.582439 12.444283 -31.115492
37.112457 20.228539 -28.507113
33.858208 10.273197 -24.124777
32.818516 9.071722 -23.615072
38.491524 11.567209 -27.625986
32.611446 -16.175867 -26.161495
33.126896 -17.659658 -25.115927
27.213871 2.800706 -29.899929
27.909006 2.148288 -30.147690
14.310580 15.200965 10.015982
29.538912 16.080992 -18.581669
35.488224 13.095510 -18.352388
36.313438 13.400620 -17.349941
29.886793 -16.031601 -31.309900
30.328596 -23.329689 -25.184618
28.484060 20.978846 -26.610573
28.807291 21.544058 -26.975092
35.008175 -9.621879 -21.654860
36.028172 -13.452953 -18.265553
33.650837 -16.362038 -31.286366
34.122841 -23.126049 -24.771198
27.890291 8.141156 -31.834013
32.239437 8.867294 -23.285631
32.452438 9.509006 -23.091034
32.195679 10.992929 -19.910612
34.206291 9.911496 -22.799297
36.280064 -10.518294 3.532237
35.394508 12.538621 -18.889996
34.393181 12.349899 -19.196888
28.853476 21.853998 -28.475809
28.299250 20.825960 -28.557877
28.248615 20.926535 -27.951756
29.159540 21.807072 -28.252577
37.878807 12.918889 -17.694145
34.694050 18.231577 -19.736332
2.405268 1.159710 16.604757
32.338860 18.835056 -23.005146
33.239891 17.863722 -23.120213
28.041307 11.908594 -30.511724
29.085472 8.601208 -26.916742
34.128647 -12.174125 -18.530153
34.222073 -9.627072 -20.649439
35.709343 22.278080 -27.174738
36.949638 22.608730 -25.540508
36.982956 23.281803 -24.971201
36.007465 17.718927 -18.491468
36.346420 17.096529 -19.300289
35.726776 17.199261 -19.791527
36.495762 18.552818 -21.428322
32.581310 22.652864 -20.568634
36.603718 20.641624 -12.822231
30.537319 17.067062 -21.283554
30.009300 13.180576 -18.931929
-16.615057 4.416026 8.692266
34.261330 16.369743 -18.978971
29.485970 11.882041 -18.764229
35.003696 21.235254 -28.227634
38.020576 -15.041852 -29.818058
37.610126 -21.263802 -23.062813
28.188896 2.576089 -24.087683
37.691036 -8.555079 -28.327929
37.952667 -21.346489 -16.926727
26.711636 -22.965914 -5.095459
28.513702 18.533262 -21.621794
26.991894 19.146872 -26.573944
28.474417 5.898386 -21.295803
31.537117 -11.285830 -25.848986
31.466696 -17.408136 -18.948887
37.165634 12.028091 -15.751509
28.257490 15.075133 -18.670881
37.558964 12.016390 -26.865475
31.323303 11.075758 -25.682325
34.409298 16.500593 -25.901566
27.470339 16.735308 -28.972019
28.186121 17.455980 -30.559320
32.279758 13.378022 -26.913506
30.393837 14.934507 -26.817036
32.505070 -13.012914 -27.059549
32.466511 -18.460070 -22.895346
37.545956 17.581562 -30.011251
37.610821 17.019119 -28.699154
37.618462 15.536744 -28.572107
28.668674 16.688656 -31.471346
29.137762 17.918547 -31.369923
35.497032 -9.534476 -21.680441
34.904057 -13.416483 -18.549744
37.228180 -23.090290 -26.050125
37.921478 -16.303305 -31.018711
37.851563 -20.042618 -26.892883
37.690681 -19.175446 -28.040228
31.431215 12.703858 -26.152052
30.821775 12.803312 -26.477781
36.917416 -14.329985 -27.998566
36.667049 -18.085266 -22.449913
35.963375 9.140978 -22.803261
36.597626 9.798217 -22.428114
32.584164 18.506521 -23.820251
36.227074 16.179871 -25.971716
28.305578 12.210869 -29.416489
28.416269 14.848996 -29.250162
27.330835 14.103786 -28.448696
28.223181 15.613472 -31.999687
36.693180 17.633902 -25.739962
37.426521 -15.603855 -29.717848
37.414604 -20.534458 -23.754221
27.599409 9.583108 -22.845615
32.281082 11.806657 -18.059807
30.941826 -18.096815 -31.445648
31.497126 -23.048025 -27.867832
-2.398763 10.783688 17.654961
7.184396 -9.575595 26.515671
30.912279 12.227933 -17.464151
34.532143 -12.103193 -32.807819
34.976654 -23.744120 -20.753172
29.395205 -18.975599 -22.392931
33.986000 17.062830 -19.018225
-5.589838 14.695901 2.377183
28.010277 12.761753 -17.241198
33.289761 -12.006056 -32.378357
32.936165 -23.977030 -19.330381
37.134190 21.754791 -27.421394
34.135838 15.179185 -18.341530
34.431961 15.156182 -18.746515
29.082478 10.770205 -22.823147
28.297077 19.277023 -28.526836
34.831490 11.255406 -19.872345
35.064255 10.952707 -20.433258
27.776884 6.814478 -28.695562
32.447960 18.478701 -21.661053
27.705875 9.782018 -26.433836
33.277309 -14.062032 -18.851450
33.093285 -9.313974 -21.976704
28.823174 8.303014 -25.221073
28.486586 9.013551 -24.952190
28.830557 10.312622 -24.630722
27.216595 2.328232 -22.083015
29.589586 16.876858 -24.037231
37.394295 16.662510 -18.047148
37.881844 20.182390 -30.467541
33.734875 22.948133 -25.102247
28.395576 3.481851 -24.197081
37.319134 -10.373913 -30.694231
37.474369 -21.094042 -19.010651
36.965523 -6.527048 -27.012306
38.068260 -18.165724 -16.347589
36.295357 11.477853 -31.797606
35.153931 -23.405594 -24.446196
34.937141 -16.170137 -32.168026
35.208561 13.261335 -31.663460
33.083775 17.292269 -26.494776
35.137730 13.594860 -32.089523
37.994755 14.265944 -31.092115
37.392708 11.644408 -31.579613
29.230148 10.060557 -20.649504
26.455555 2.675772 5.086491
32.551010 -22.862457 -26.686420
31.781467 -18.477470 -31.557493
28.475094 -9.765598 -21.199574
28.713867 -12.567710 -17.860111
31.522041 9.457717 -24.544245
37.480827 -13.219801 -2.183694
37.433094 7.351665 -22.130617
35.672031 -11.341580 -25.039532
35.911755 -16.383303 -19.415670
32.622265 9.958065 -23.113844
32.458862 8.983236 -22.882429
35.730221 10.285020 -20.429367
34.427780 10.722077 -18.679798
28.225903 16.624470 -26.942293
30.541113 -15.997787 -26.717184
31.006569 -18.416109 -24.850769
30.658205 -15.619459 -18.780754
34.087093 23.253426 -22.723135
33.344376 -12.848224 -31.539865
33.907578 -23.733589 -22.083622
31.417393 -15.280935 -27.222048
31.120100 -17.718128 -24.219240
29.134817 -16.128664 -25.698547
29.448580 -18.210163 -26.054127
1.213564 -13.477112 11.933533
31.900991 21.816366 -27.926249
33.112907 15.297126 -26.916622
37.500500 20.811628 -25.784796
31.165127 -21.013689 -27.958729
31.209169 -20.871845 -30.017733
34.497372 -19.292553 -30.489756
34.650078 -21.650646 -27.624950
29.136200 3.506496 -28.447433
31.968895 19.795305 -29.337627
30.942484 21.689817 -28.739691
35.939259 17.676401 -24.616234
28.939493 13.839307 -30.202892
27.725576 11.689584 -28.473236
12.472160 1.293023 6.405765
28.633175 -17.089157 -30.951351
27.869856 4.085676 -16.520996
28.267761 -22.803734 -26.069435
35.384266 23.778282 -21.630075
31.267179 6.263246 7.384166
29.801512 17.919876 -22.762903
29.594921 -16.683947 -19.156408
31.096914 10.617889 -18.996885
35.588772 21.959486 -28.867777
30.923050 23.867796 -24.269442
28.452568 14.883767 -27.423277
29.434948 -9.908346 -23.317520
29.198977 -12.783228 -18.726185
28.874939 16.391294 -28.510983
28.339499 16.964834 -30.030260
-36.138161 -18.253544 1.090044
30.862417 13.841990 -27.631466
28.324884 12.019509 -26.660069
-3.108690 13.097517 10.794057
36.483788 -10.754732 -24.538311
35.931889 -16.250288 -19.183405
31.189955 13.889585 -32.639053
4.243027 -10.694788 23.917713
29.667133 18.000624 -31.737007
-3.657900 13.659046 8.234781
31.755011 14.340088 -27.450977
34.901802 -13.826300 -26.687349
34.432522 -17.918423 -22.612396
35.638222 13.708534 -26.978098
37.552193 17.490900 -27.853619
28.220560 -18.529919 -29.347162
28.002598 -22.068907 -27.346447
30.138678 16.859982 -31.711269
30.743128 16.956675 -31.010883
30.078156 16.482664 -31.282461
35.604362 18.652224 -22.924120
27.151373 17.690380 -26.909969
28.224129 16.296528 -28.038872
27.986160 14.548788 -27.998165
27.481194 12.991945 -29.531988
34.945782 -12.216038 -18.677399
34.417999 -10.558547 -20.646126
31.601759 -19.024311 -22.499636
31.869022 -13.606906 -26.933270
33.242985 12.055614 -27.000761
32.020813 11.865569 -26.264818
36.858654 16.674541 -26.174515
34.530937 18.513296 -24.940586
37.584732 -16.096025 -12.404326
37.392681 -3.200269 -26.343246
28.187046 15.466229 -27.420704
31.222424 11.253034 -19.766972
34.432335 23.075951 -23.492271
30.662144 22.512407 -25.685179
31.222740 22.529797 -26.249723
31.960602 23.571507 -25.422148
34.889278 -22.150316 -27.520258
36.266071 -19.023626 -30.717108
27.956512 -18.397106 -22.351570
28.490072 -12.171457 -26.932995
28.057642 2.452914 -22.879545
9.667488 -4.850598 20.878374
31.334148 17.526300 -25.654089
28.105793 -15.142366 -29.172934
28.749153 -20.487936 -23.915514
31.346064 22.075869 -27.843163
35.940475 20.413984 -28.719793
34.785820 9.092060 -21.682037
28.653656 6.621290 -28.193432
33.730198 17.744293 -19.481180
33.189121 18.222118 -22.983376
32.886936 23.048113 -23.512424
34.024418 23.020641 -23.416018
-14.341476 -3.510464 10.853848
27.896265 5.818920 -24.471287
32.328228 23.607103 -23.099325
31.495174 -12.485081 -31.899597
31.447264 -23.492449 -21.861139
36.292889 15.393815 -32.189690
36.856812 14.957709 -31.740004
28.214539 12.439222 -32.614159
37.426067 -22.398293 -10.421635
38.051491 -0.865463 -31.394890
33.268478 16.573624 -31.880886
33.360706 12.528508 -26.676466
27.907034 7.662073 -29.343847
29.399300 -23.373144 -15.686902
29.597134 -6.659422 -33.379757
32.480804 -23.583015 1.827697
33.981815 10.892953 -32.231934
37.685112 -21.874384 -16.230686
37.243641 -7.124064 -30.928465
31.598610 -17.276871 -19.140968
31.831442 -9.382565 -25.681364
28.962082 -10.492082 -25.839243
29.536989 -17.250986 -18.884325
30.581739 17.057898 -26.336231
30.152620 -10.587341 -20.688931
29.298676 -11.675959 -18.206360
37.225113 20.812660 -27.062778
37.923309 -9.282975 -10.507788
37.890675 -2.201890 -18.097876
29.766457 23.308815 -24.727903
27.879427 7.975524 -8.098221
27.887541 8.616064 -27.737387
31.060204 -14.391264 -32.321983
31.652159 -23.635382 -23.418051
29.163830 -10.139629 6.710909
28.868046 22.320911 -26.730085
29.536045 22.445513 -27.029684
34.810822 -19.531261 -30.624449
34.873405 -22.227951 -28.147984
36.309269 -16.740175 -31.512329
36.211540 -23.131971 -25.794685
27.829506 20.009630 -29.704884
30.708958 18.750174 -23.833521
28.262222 8.837420 -26.828470
28.439074 9.159166 -26.075472
31.373957 -11.772929 -19.105061
31.727951 -10.219118 -20.395344
-31.024332 17.105705 0.770093
35.538330 18.492386 -24.000731
37.052017 18.955601 -22.044109
38.054440 20.247013 -21.976765
36.563805 11.301153 -29.199663
36.338593 9.943525 -24.780094
37.627438 16.291542 -26.831493
27.795889 -20.062500 -25.590649
15.333031 -23.397734 -5.315644
27.653040 -17.182055 -29.183151
29.537434 17.590881 -31.003016
34.490501 19.118855 -22.460600
35.892246 13.674108 -27.474581
36.129322 14.510324 -27.114023
28.632624 14.028170 -31.114515
29.939882 17.492912 -25.558798
34.802250 18.237614 -23.447416
36.815651 -8.294631 -10.072453
37.755981 -0.908894 -18.325869
-31.574831 22.877644 -6.392152
28.744013 -12.955315 -30.738956
27.660950 -22.928288 -22.217991
37.432053 22.149176 -23.439142
12.670668 -1.002159 6.714737
29.232941 10.731555 -22.136715
33.744751 10.083535 -20.724272
27.348238 2.532748 -28.185759
36.255497 11.120418 -19.991856
34.858051 -24.508358 -16.252872
34.741638 -7.927755 -31.957438
35.313896 -23.637777 -19.411915
35.277782 -10.954845 -32.001816
35.961990 -23.480431 -14.449315
37.349689 -4.955170 -32.832264
30.161018 15.005974 7.909894
37.856480 18.236698 -27.327372
29.215521 5.794103 -24.302824
37.645378 -15.759055 -30.549511
37.864250 -21.506380 -25.926971
27.917440 -21.779255 -28.021893
28.438541 -17.951780 -29.062731
27.359514 19.176933 -30.101789
30.606197 16.931568 -26.117737
32.182930 16.426691 -25.807814
27.440876 14.030308 -27.140930
29.412144 12.254773 -32.816895
37.539410 -22.418779 -7.180736
36.763344 1.571145 -30.670799
32.799793 -19.190220 -30.165495
32.932522 -20.680798 -27.968166
31.922813 -17.335989 -25.866291
32.409500 -17.877434 -25.906666
32.208748 18.838409 -30.225538
32.513012 15.740895 -26.473358
36.876972 13.305184 -27.631853
37.331829 13.038227 -29.424400
37.772995 15.354500 -30.003407
-3.810892 12.841296 10.210510
34.780701 11.150953 -26.552197
37.533703 -17.080410 -18.550806
37.028904 -9.465708 -25.674932
35.423115 18.955494 -24.315470
28.512150 -18.556517 -18.214823
27.574812 -9.774319 -26.073757
29.005072 8.659258 -30.050966
36.283928 14.599992 -32.827614
35.724060 19.805590 -29.971611
27.494534 13.173363 -30.684582
27.823725 11.845131 -30.727854
28.299337 12.569913 -32.268715
32.290058 12.585442 -32.126427
31.703686 -18.831699 -19.856791
32.041321 -10.695264 -26.823599
30.343481 -12.089189 -26.805950
28.532545 15.616133 -28.523590
1.177702 3.854827 26.336475
28.255157 15.689471 -31.654692
38.023239 -22.862099 -0.220313
38.060730 9.350627 -31.096273
10.639710 5.746480 20.526308
38.211643 14.305124 -30.468550
30.720867 -22.247025 -28.050213
30.827671 -19.104010 -29.895252
37.732166 -19.031298 -30.456339
38.188210 -22.289654 -27.363707
36.099033 17.492037 -26.485058
32.573067 13.847626 -32.435280
37.437550 15.791022 -29.416433
-5.864936 -5.529466 17.369049
-8.657860 -5.502137 14.416537
37.500996 17.137150 -31.423050
2.512237 -5.653326 12.970732
28.297514 13.497725 -31.474129
29.105787 -21.211685 -21.286957
27.796101 -13.351037 -31.053524
33.989071 15.158978 -32.017742
31.438236 -23.472452 -24.297785
31.024275 -16.162645 -32.233242
2.143952 -11.643909 19.271698
29.243929 9.550306 -28.532658
37.886272 12.670327 -27.455219
31.649796 12.817464 -31.342964
34.044132 -18.392626 -30.569860
34.971954 -18.464949 -30.773899
34.954933 -22.228706 -27.571049
1.762487 6.432116 10.996704
30.013885 20.159475 -29.666435
28.675646 -23.052071 -15.297325
27.896942 -7.026498 -30.609827
27.600307 13.307050 -27.252504
37.904732 13.388687 -28.409782
28.642433 2.336564 -30.260321
33.880939 20.366154 -29.478704
33.185818 19.283468 -30.009104
35.116245 10.991122 -32.613247
11.640907 -2.774304 25.398384
33.924728 23.378529 0.235181
22.965456 12.084982 8.205993
37.647484 -21.892038 -5.346393
37.900669 4.200696 -30.241632
37.746948 -20.557138 -12.486328
37.674580 -4.515148 -29.134140
34.318214 -23.570230 -16.711809
33.445724 -7.343204 -31.617188
31.213547 -23.042889 -2.730651
31.139582 5.735438 -32.780636
37.097790 -23.973007 -1.435572
36.987827 6.570309 -31.931219
-22.279411 -5.013006 0.724895
-14.357090 2.015594 10.298535
-18.590769 1.511371 6.255959
-26.319910 5.685906 2.553585
-6.052841 -6.857321 15.730179
21.348261 -1.958890 15.579925
2.057384 -2.218407 27.240736
22.882172 8.273146 15.691905
9.731977 7.265046 29.167025
4.478278 -2.136125 17.904848
-15.977437 -6.237739 6.888363
-2.049520 5.018061 22.170168
-3.402270 5.268538 19.750790
-31.742125 -13.726812 -1.572368
6.820084 -4.791900 16.451921
-20.143143 -1.798148 4.586478
10.158285 22.481339 1.448578
26.185188 -12.919930 10.658499
-20.735462 3.846137 4.247665
-21.179028 11.298290 1.037393
12.586689 -3.096402 25.838232
4.218171 -14.856157 12.025748
7.501863 -15.597040 9.549000
9.633807 -11.236567 27.091619
5.705008 -7.584686 8.476550
17.200504 7.054406 16.596331
14.653047 -2.822050 9.459390
15.109590 0.848220 7.982659
-1.656402 2.968788 23.330261
-1.590454 -0.474033 22.681967
-5.710532 -0.969396 19.767372
-7.902302 -0.351571 18.066265
-2.024314 7.224426 19.711498
2.919937 -4.840641 13.297288
2.905358 4.493482 26.307156
3.876688 7.674591 26.100393
3.249744 -9.122010 24.121958
5.967531 -7.604658 27.609598
-25.734921 -18.434446 -0.148722
4.574093 13.854972 17.051241
-25.449419 10.089911 -3.161318
21.373604 19.005173 1.462894
-7.653684 10.839440 10.012997
14.939584 21.763033 -7.714954
15.665666 -14.735993 1.776956
5.538848 -2.361567 30.960688
8.664025 4.993010 20.877195
1.832977 3.389512 16.253180
5.950722 4.022084 19.565853
7.292952 4.923189 18.689751
13.211786 -5.616310 25.664085
12.136503 -2.822924 27.316765
10.961703 -13.246332 25.399662
10.035714 -11.641949 28.135851
-11.844224 12.612222 2.986840
9.197155 -1.930084 3.414787
11.616791 2.697121 5.397836
13.806586 5.702510 23.859703
-8.170282 1.834012 17.859236
3.385704 6.437176 26.392855
15.146463 1.525384 -7.400561
-3.928785 -5.538245 20.592588
6.647051 -6.300793 13.925516
-17.281612 2.506567 6.646910
11.086835 -14.933373 13.713685
8.095758 -14.934202 16.923180
-23.582336 -13.148265 -7.169160
11.774360 15.239209 6.680615
11.068895 -6.546963 9.959514
10.802649 -7.295459 17.381321
-5.507939 5.538656 18.627394
13.341290 14.672216 10.101265
-34.533577 -19.673162 -2.823891
-34.158504 -21.360855 -2.154496
-11.825305 -3.712866 11.308652
11.171084 -1.990038 4.231650
-1.627339 -10.941528 16.363943
23.766460 13.650649 15.032486
14.060752 23.858360 -6.269140
3.174289 6.968457 11.712557
5.527298 5.473789 17.095978
-12.160514 8.476352 8.904954
-27.288263 9.629533 -0.962819
13.675690 6.377673 13.787150
4.449374 -0.856180 8.927969
2.010947 -0.858835 10.561182
14.784456 6.024920 21.118942
-6.580190 -1.983844 17.199642
-9.740790 -2.048456 14.901361
21.529554 10.702610 17.332865
12.237732 11.909005 27.431477
20.730120 4.873878 15.972944
16.567858 -6.585249 17.679186
-21.069990 5.966087 1.769751
20.579971 0.275521 14.073697
7.011228 -0.981206 21.724239
-19.484846 -6.167646 -6.924091
-21.111237 -5.703103 -8.168876
13.735918 -1.616137 8.453942
-1.443144 7.211955 20.231813
-27.514874 1.500526 -8.617126
-12.782913 -14.361591 -7.305790
8.877797 -0.783880 3.359548
-1.729073 -6.979632 21.240097
-23.177797 -12.165941 0.587192
11.159657 -14.013413 12.515481
-24.999151 7.388676 1.929311
-0.810059 17.621304 2.445559
19.758133 18.477140 1.341053
6.002686 5.968703 27.442238
-0.332267 1.507231 24.256010
-2.609130 -7.983948 17.560143
2.263420 -4.807351 13.754464
-15.057151 -4.526192 8.633037
3.683850 -8.171549 24.728237
-14.941184 -11.098328 4.283824
24.835255 -12.408284 15.147058
1.708558 -14.716750 -6.948137
22.017702 -0.961019 16.054234
-15.916763 -0.562186 9.921343
8.855396 -13.033451 20.579741
17.758211 15.323810 4.987861
3.314889 12.990410 18.649038
7.748533 13.519366 20.755424
8.036216 12.377337 23.828373
0.511759 -0.357165 24.597328
15.880198 -2.990745 10.263966
20.125017 -6.769817 18.620594
-21.113298 4.677357 2.402469
-6.942991 2.020208 18.420412
-11.048114 -7.120203 12.919941
1.453516 -12.199867 14.949065
30.753361 5.928643 7.814333
23.097801 10.590820 6.601481
11.297005 12.482273 26.257387
22.344763 12.841083 17.236919
-9.852494 -10.184997 8.763430
20.881996 23.691256 -6.155066
26.093943 5.633793 10.602612
-7.564833 -11.043900 10.953770
17.020470 6.678063 14.657186
11.160335 -4.037253 23.145510
11.263970 -6.194559 21.793842
-15.671731 2.310219 8.704893
-3.375157 16.336845 1.336679
11.183681 -6.486437 20.436319
-0.711296 -8.347862 20.449032
13.815216 15.676213 2.073402
4.461109 14.238050 15.099121
8.679987 14.762491 16.832150
7.082080 4.532565 19.584492
-16.862610 9.762631 2.677630
12.353488 16.484230 2.166252
16.433662 -2.536778 9.802773
-3.635580 2.441788 21.729183
-6.726138 6.036402 17.132891
6.366171 13.410380 21.677479
7.155822 9.511878 28.061367
-2.550593 -8.497787 18.672359
7.020741 -14.364768 6.276581
18.962416 15.204407 1.744761
24.555689 -14.788509 12.482675
4.414420 15.020375 14.129059
-15.339806 11.540783 3.947293
-20.086349 13.760903 0.861262
-33.284958 13.488730 -2.771723
11.416320 2.578051 25.097471
3.929390 15.258707 3.966156
-26.187460 10.959373 -0.375499
14.792702 -3.992266 9.263647
-32.393955 12.759634 -1.754067
-23.611675 14.017967 -2.395200
-10.639645 12.550259 4.070691
-13.638901 -8.550529 6.764154
-12.352892 13.177338 1.798587
-31.670074 11.058036 -4.556787
16.636869 5.070127 13.114090
13.312787 2.306379 8.188326
7.632932 -15.037189 7.331748
5.474266 4.625051 29.326279
1.536836 3.996402 26.292919
-13.600250 -9.870904 5.162403
-1.743555 -7.882841 21.293642
5.170753 -0.673266 30.666346
5.248240 2.570009 30.794840
2.982039 10.669875 20.050341
10.333311 -6.561743 9.655087
15.357222 23.000450 -2.123862
9.902167 -10.573368 28.862963
2.491909 -1.230054 26.496832
4.366063 -9.812909 24.651304
-23.261646 -2.628114 2.796546
11.607440 -15.255279 7.663218
-4.633510 -3.411174 18.565897
7.018312 -23.890566 -1.310802
28.718237 -14.055112 6.640950
-11.906755 8.002262 8.800977
-37.163151 17.632685 -2.045385
-9.143346 -13.748641 3.828380
-34.844345 20.328751 -1.265671
-30.347273 18.158815 -0.021950
26.312532 5.943736 10.987574
-30.684315 17.355766 -5.621396
-29.385820 17.915976 1.765864
31.009556 -5.332615 7.187369
16.375196 12.535816 -7.986574
9.279493 1.727119 23.933643
-14.196779 2.640209 10.086532
-22.062775 4.049019 1.621710
-2.340866 -11.028467 14.205816
10.579027 -0.414812 4.372273
-8.545341 1.350255 17.300970
-5.421886 -7.164141 17.384089
-2.700546 -6.939428 19.464365
-19.478603 3.557746 5.128525
-20.594040 8.107925 1.901680
-6.424402 -10.156217 12.684240
-12.787591 -9.252406 9.924171
0.600851 0.714721 14.511275
10.675206 6.554514 20.368542
-13.956280 3.142824 10.392399
9.613954 6.131108 9.560796
-25.889355 17.630842 -0.714768
-15.440497 -10.004462 5.097475
-18.003328 -8.149215 3.282697
4.210671 2.836892 17.015564
27.152456 5.145586 11.288272
12.093886 1.033035 5.503072
24.540579 14.856854 10.333008
-14.053030 5.465708 10.391313
24.996904 7.869370 9.497384
-16.027937 1.986250 8.411818
-8.920933 -0.311455 15.342734
-8.675870 2.082790 15.890955
20.581514 -0.710658 13.378888
22.800800 -23.108879 -1.182916
26.073309 12.345329 11.974642
19.840731 -23.139696 -5.218148
24.603903 17.170170 -7.896810
30.127653 24.036341 -4.815611
-17.298229 23.355350 -6.241932
25.068321 14.884234 13.968565
17.562534 -15.673849 9.316104
22.254999 15.614168 13.294039
23.327709 -0.632740 7.932892
21.241045 15.092658 5.902125
-31.549459 11.504499 -5.441843
17.827660 6.969468 16.268158
-16.241034 16.786264 1.201781
3.321573 3.214041 16.183800
-7.800662 -9.742455 10.875617
-9.115361 -9.296237 10.898693
14.524515 -18.064117 -7.640383
7.381037 7.519164 9.167741
5.586018 -14.512799 6.457390
13.870248 0.925173 6.442042
-9.634263 -8.990857 11.953517
0.168418 -15.944920 1.870965
8.475727 -20.397991 -8.048330
16.872601 5.241006 12.961613
4.757208 7.057273 13.497269
-32.076992 -11.607701 -4.998246
27.573915 6.580685 -7.537178
10.311014 -11.086704 -8.120310
5.537579 4.006492 16.774912
24.804644 -14.684761 11.727242
-37.706532 17.204807 -3.497577
-5.226051 -15.003370 2.683748
12.704067 6.372430 13.983714
23.164261 -15.096940 6.778568
-30.533909 11.708943 -4.929440
17.328077 8.472317 21.119673
15.790726 7.080774 23.751835
6.627365 23.226797 -6.444031
18.996737 14.954111 4.826432
9.650083 6.095640 7.470796
-25.156982 17.202984 -1.326461
19.407127 15.830420 17.181643
25.009212 -15.216409 9.536433
33.619011 23.199903 -14.893667
21.822302 -18.276999 -8.673707
14.956860 13.671284 -7.782455
29.349060 14.146103 7.193252
36.249012 9.667891 2.478936
21.516438 3.261376 -7.509656
12.535535 -13.896555 26.008408
10.969172 -9.265164 -7.392581
23.882168 -6.103180 8.177883
-25.437336 17.535313 1.248757
27.135752 -15.126065 1.598221
5.499311 -24.061216 -0.104755
4.488912 -23.082233 -0.928160
10.287504 -23.660374 -7.759058
-37.567528 17.957094 -6.753041
5.248780 -1.968172 -8.017441
-16.508192 20.322742 -7.446774
14.353203 -22.968946 2.473197
26.655689 -24.009798 0.949127
33.954403 11.300774 3.955305
33.108482 10.736039 5.902762
24.164988 9.611402 9.511427
24.342100 10.992489 10.653116
22.823875 -22.127707 -7.927144
27.805534 0.712013 5.824777
34.693520 17.209896 0.818668
-28.016491 19.253313 -2.076041
13.529076 -22.477015 -2.840185
25.398600 5.391154 9.129855
-0.911816 -15.000286 1.871072
-31.855507 16.620026 -2.299927
10.976198 -20.186340 1.120568
21.449982 23.951429 -6.371665
28.205614 17.964464 -8.593542
31.437746 23.207956 -21.588524
28.049814 0.120836 -27.264032
27.576035 -19.854004 -9.022460
27.237274 23.854607 -0.321896
28.861111 -10.628202 6.390448
28.035931 23.502729 -4.771523
30.613960 -2.865238 7.613756
-0.995914 -12.014186 16.288774
28.660149 3.992116 5.299758
22.664534 3.906668 -7.226271
32.112637 12.775020 7.718113
29.864243 14.588883 7.151792
34.005051 23.267687 1.351701
28.264008 17.746382 -10.827133
20.068609 -23.607027 -1.038539
27.291870 21.065794 1.815503
14.611900 -5.638808 -7.641620
5.284332 0.687004 6.867377
29.008390 6.599525 6.023520
36.432240 14.525293 3.030515
37.421329 14.753625 -4.912473
32.434010 -9.218917 7.262984
16.562386 -8.906254 -7.695445
24.762199 7.096387 10.649770
27.874870 17.172470 -14.427576
28.742386 -1.214982 5.896629
37.978371 22.297522 -20.941906
-3.670042 0.566514 21.854010
15.848016 11.113260 -7.261209
36.645802 22.080759 -9.357168
33.719505 23.484110 -8.314713
21.563513 -23.315094 -5.224895
29.888771 -0.461619 7.153297
37.572151 18.027754 -12.421028
28.688665 8.085226 -22.567739
37.533161 18.799183 -21.479418
30.434216 -9.635844 -21.391695
28.876623 3.728866 -17.672754
27.967871 9.387693 -8.386549
31.724529 -17.467749 1.932914
35.368053 3.338395 4.052620
37.980312 20.015568 -3.245553
37.552719 19.505377 -3.258815
34.624466 0.938329 3.997709
25.882545 8.950946 -7.611726
29.682749 1.858878 8.101079
27.843586 12.450235 -11.163439
34.122425 13.212230 4.470611
32.614098 -2.275392 6.697719
30.574860 9.698425 8.444579
24.534256 -12.731556 -7.415470
20.769838 -1.903823 -7.310358
37.236092 21.286415 -1.277614
37.772636 12.975451 1.563592
29.042791 18.187553 -14.917013
30.295950 22.910912 -7.692916
37.529354 15.096652 -0.309104
30.712543 -4.264178 7.946970
35.757748 -13.933460 2.067395
28.193735 -22.900629 -25.875265
27.785250 2.122214 -27.806293
32.440632 18.725498 -30.809185
34.076920 11.975861 5.470862
34.304016 -3.862924 4.755268
34.442120 1.171993 5.688132
36.611431 -5.719428 3.109949
36.248978 5.146612 3.865021
31.227772 -8.097498 6.398086
34.215588 12.049352 4.232982
31.652802 -0.030226 7.019228
32.087978 22.989958 -20.774086
38.032990 22.832064 -11.596228
35.495167 23.804977 -17.502129
37.698879 22.478352 -15.686448
36.932648 13.148157 -4.848400
33.933937 6.213193 5.257619
38.356941 19.733551 -27.831350
37.671104 14.769460 -27.279877
37.940250 21.288334 -22.906544
27.997461 7.456498 -30.107294
28.615242 10.707027 -27.057842
27.929489 20.069592 -16.671602
31.266621 22.685984 -17.158123
37.966080 -1.809228 0.030868
38.212238 9.358633 -9.237744
-33.029911 22.182196 -1.462774
33.206390 23.079523 -19.571260
37.333183 18.537642 -18.374655
32.071960 23.261768 -15.079918
28.269543 18.809650 -22.214205
27.715073 8.548019 -17.698952
28.612370 7.308343 -15.081152
27.668627 9.578861 -9.063550
28.011236 17.198837 -29.775904
37.826061 22.041653 -13.167988
37.495033 18.352022 -17.824139
37.280132 -2.610077 -3.857315
37.616699 4.250353 -11.164725
31.820208 22.711231 -27.841816
33.991535 23.215393 -16.341677
28.633869 -14.487876 -17.853556
33.773872 14.678881 -18.667643
31.203522 16.994862 -24.862719
31.370705 -15.802070 -18.754049
33.699932 -16.105391 -19.264788
38.323681 16.983389 -18.059515
-18.427769 -9.269607 1.666333
27.942492 11.215771 -31.330883
33.767574 -11.376528 -26.615160
33.273304 -11.434086 -26.411118
31.372690 -11.268572 -26.978863
37.615295 12.269572 -31.003368
28.357100 4.778177 -31.806147
38.124649 12.019984 -17.086897
37.612930 14.106928 -32.443314
29.856716 13.873420 -27.427065
33.724277 -17.458200 -31.298891
33.150303 -22.700081 -27.294127
33.923988 15.639802 -26.738262
30.727160 -21.713316 -28.005919
31.293407 -18.558891 -30.046179
28.327492 8.820844 -29.574923
29.958160 20.630508 -29.276918
32.934963 11.936527 -25.596354
35.370079 -9.479832 -22.230961
-31.567337 17.310881 -6.589585
27.730667 1.997805 -16.207945
29.664804 21.737051 -27.347458
36.383350 22.584858 -28.015116
35.536217 14.535848 -27.094780
33.695793 22.588259 -26.587654
37.738960 -18.869303 -0.594788
37.780243 7.997756 -28.175169
34.710266 -17.087664 -27.102007
2.978882 -9.920732 23.812843
14.006639 -6.438602 20.366409
11.612351 -6.169144 9.233003
-17.490505 -8.889759 3.280363
5.910564 -0.599175 20.809448
4.324864 -6.296910 27.643791
-16.398663 3.525585 8.454446
-20.431293 2.707550 4.157347
5.845346 -12.513332 20.650625
15.586958 -3.280703 10.322003
11.557647 -1.643634 27.756861
5.409538 6.916168 28.227272
-2.740827 3.140080 21.908823
24.961891 -15.025068 13.505446
25.443520 -11.868144 14.536542
28.761074 -17.396030 1.279820
7.551185 -5.288080 18.286926
11.539145 -5.926970 20.425816
4.563924 -0.359103 17.882236
2.813280 -1.598602 26.289318
-30.363892 -18.234024 -2.704026
-32.479340 -15.880151 -3.022007
6.488776 -4.700786 17.382654
1.511488 -3.777579 25.606808
10.728011 15.967070 1.308789
4.645063 23.557901 0.768726
10.101010 21.031597 1.936936
-1.478010 0.911712 22.841166
26.946402 -7.555562 11.916854
5.755400 -5.246577 29.900537
8.758283 -1.670332 30.348772
24.612335 -1.822334 14.179997
2.716606 -1.555795 16.728064
7.319355 1.677030 19.901737
-21.004740 4.354505 3.302758
-19.495611 4.911606 4.142305
-31.429905 11.006828 -2.341892
1.665958 -8.053288 22.702967
13.259773 -5.357390 25.549637
12.266554 -4.666687 26.770819
-25.954103 -11.010150 -4.934445
-24.312624 -11.911448 -4.236395
-2.443727 -14.809347 6.499778
5.820207 -13.253439 18.686169
7.829493 -12.644753 22.016581
13.298350 15.093267 12.522477
1.429484 -6.375701 12.385970
4.973404 -2.019789 8.108577
3.054097 -1.554619 10.313378
6.341361 -7.551112 8.936332
14.747598 -2.280972 8.785383
8.549751 8.549135 28.690622
7.101431 9.202279 27.905025
8.590199 10.973825 27.143391
11.296567 13.976925 24.841225
-25.305071 10.912255 -8.312650
-3.339280 -11.065253 -7.624014
9.489944 -14.221107 20.113989
13.949642 -14.567681 7.208394
17.588112 -7.293180 18.864973
-2.350829 -11.877130 15.246237
-8.811782 7.390696 12.272976
-3.304363 13.707727 10.918840
5.719872 14.214948 16.131458
-11.751396 12.947030 4.209695
4.353055 3.377318 7.674055
-8.982790 -4.768651 15.317883
-14.671124 -7.367115 8.019683
26.460012 -14.478403 13.080923
25.842670 -11.066870 14.246244
-13.121680 -6.820556 9.048115
-6.160423 -0.827699 19.213474
20.930443 -13.890738 17.819349
19.694645 -15.444248 19.497929
12.229826 -5.383790 26.886822
21.958389 -6.493644 17.436722
25.675489 -2.162420 11.117644
23.199110 -13.202060 9.878376
-33.582462 21.896986 -6.436684
-12.099389 9.757215 6.087842
-31.278454 11.535498 -5.672956
12.835037 -0.245473 26.400143
-4.157880 -14.032017 5.837550
9.556158 -11.406137 27.983278
9.917642 -10.879635 27.216812
15.867307 3.056309 9.965543
13.241308 -1.728547 6.850266
12.412334 5.792927 9.401643
11.960617 2.256459 27.532049
12.957439 4.385444 23.329233
-20.234152 -5.406503 3.364420
-8.663982 2.144774 16.342524
10.418497 13.160645 22.816175
1.733914 12.799926 17.118765
-1.555456 9.330757 19.513645
6.447192 13.016090 19.592739
8.843407 11.489345 25.767555
6.632948 12.436242 21.420431
12.262447 14.032168 21.945856
7.930711 13.184783 20.932558
17.776091 3.111725 13.325168
-24.798340 17.041861 -3.426823
-25.038113 17.488945 -1.721145
7.508149 -6.752283 16.550072
17.230316 -15.553139 10.343175
-20.094532 6.943256 3.302845
6.692798 -10.904968 25.891506
28.235643 4.388167 6.409286
17.084078 -14.665972 17.575327
15.277802 -7.278443 22.613811
14.555301 -4.662847 10.860787
13.226823 -0.104072 5.831483
-2.964646 1.769847 22.225677
3.463133 6.334417 24.631208
9.483852 -4.746768 22.159042
7.993024 7.212646 30.046749
-0.057813 7.593693 22.255886
-0.431747 7.787986 22.067989
1.882283 7.969722 23.266008
4.310441 -14.998672 11.539815
-5.198477 -3.175112 19.285549
3.800939 -4.336555 16.759314
7.872813 -5.696442 17.580698
9.363233 4.337583 22.499874
0.243069 -5.803955 22.515833
-20.974621 0.215421 4.568232
3.534503 23.515947 -5.999345
-7.321503 -4.235058 16.197298
10.058698 -4.241078 21.371384
11.763555 5.903637 20.508158
9.590793 -0.473563 24.759029
4.898166 -14.439286 12.373320
-10.245649 9.887366 9.383851
11.271281 15.295891 1.230392
19.163105 -2.532108 13.359663
23.478487 -0.368352 15.629569
10.573370 -0.255215 30.059566
-0.453796 0.153229 23.370077
13.861951 -6.062533 12.872803
-12.387046 11.801423 5.083962
-10.730062 -12.224640 4.144667
25.996029 19.986605 1.087294
-11.611851 -8.514301 7.312878
25.224836 -10.686884 8.830547
-12.195694 -1.975103 12.192896
18.380157 14.942351 4.579034
13.235428 4.874872 11.635000
10.161318 -1.034982 4.374771
-2.021714 -10.424980 16.048405
-15.216856 -12.038067 2.630816
10.207877 -14.055859 -7.980307
26.249670 -13.411230 10.749013
-10.981915 -7.339381 10.206424
-14.747876 -5.486835 9.454387
21.380964 15.267268 4.472052
6.470565 23.919077 -3.905787
11.368344 23.773708 -7.017286
6.193042 2.026025 6.355255
0.352909 2.888128 12.498008
-12.299070 8.301953 10.370958
-10.931158 7.745384 10.995447
-22.452219 20.083820 0.827358
-31.999096 16.922297 -7.265875
-32.949776 12.584653 -5.990288
1.446245 -0.760275 10.375666
6.205962 -1.697393 5.970953
0.800282 -0.757059 12.500739
11.159971 5.119759 7.016058
7.928150 5.856704 5.132882
-8.009620 5.129717 14.889456
-4.251775 8.667837 16.777203
-1.021998 10.235747 18.103485
-0.409915 11.341002 16.594234
11.247737 14.548518 21.346491
-23.433296 15.262649 -6.311440
-24.220043 16.853666 -0.271786
-25.519270 16.475643 -1.246948
-37.454994 -13.956120 -3.691830
-28.889372 -23.998940 -2.706929
10.214269 15.489893 3.002103
1.595029 -6.225125 25.127508
15.559736 -14.954658 16.825262
-1.710706 18.803122 1.300302
4.473790 9.143194 25.008316
14.408900 -6.787971 20.847673
20.891298 -14.243035 5.621117
19.339481 -14.528385 4.322794
6.593189 -4.886455 17.868416
-28.397295 -18.501581 -0.744784
3.255930 13.563974 15.733659
10.582606 14.733954 19.671484
3.594280 -2.766961 17.773392
10.460613 3.389128 23.184378
-15.632516 7.528695 5.352239
11.760360 0.620196 24.894236
-24.193470 -16.726234 -4.873808
-1.720020 -14.452752 7.151732
-2.190620 -12.572605 14.205889
2.949646 -13.334077 17.628588
11.634240 -2.876633 7.045117
-1.878178 0.004247 22.526323
-3.448296 8.377760 18.967785
18.051384 -5.102558 14.818312
19.588070 -3.447791 14.345611
-4.385990 -8.370469 16.789547
-5.666723 10.701530 12.680152
3.223945 13.622539 14.295940
17.031279 15.439194 12.119244
-7.238390 -2.027951 17.342257
20.762293 15.356813 2.063479
15.420291 20.643164 2.011385
24.235680 -13.293989 15.262803
17.626493 15.545091 1.170203
11.159881 23.352451 1.405244
1.742846 0.182767 15.706119
5.231392 6.154491 14.192487
11.687642 -2.214378 5.366679
10.753659 12.231338 26.464882
3.112923 12.428952 19.458181
4.120108 -9.941808 24.501259
12.190023 -6.768363 21.231853
-8.013195 -7.412540 12.375648
0.960417 0.193492 25.581184
13.831629 -2.303759 7.163650
-10.123752 7.578577 12.218972
-5.042473 6.809326 18.387308
6.511431 10.866077 25.002935
-4.102793 14.659562 4.721950
-3.308320 -8.397461 19.750439
0.994261 -0.713035 26.003807
10.657577 -4.623360 21.744680
-24.070698 11.621012 -1.542792
3.511709 0.797822 8.532103
9.287996 -13.843390 21.630657
9.190194 0.287838 23.541451
-9.918961 -12.061718 6.245464
29.917858 -9.651989 6.468780
12.478724 -2.693042 6.892170
-36.529125 -17.763559 -4.133976
-32.356316 -21.727264 -3.270917
24.169582 15.112663 9.486861
-11.979459 -0.003568 12.462595
8.970797 -18.896797 2.366930
-36.397114 17.180157 -0.253964
4.223464 8.216873 7.569108
27.860861 14.386764 2.459590
27.557203 -4.322746 4.952766
6.189029 7.545862 13.010213
7.778501 6.068728 13.298576
-11.771149 6.054968 12.200325
-31.637264 15.939465 -5.965067
-5.424102 -12.095510 9.661377
-7.798197 -11.338621 9.372322
11.037398 7.080885 12.659593
6.067944 6.437404 6.687811
12.194507 2.929567 -7.781375
-26.141880 23.417498 0.898002
12.234350 -6.905218 13.616638
12.988310 14.848181 4.779258
5.847470 13.902422 16.904097
18.476616 -1.575927 11.152215
4.192064 -0.791562 8.625690
-0.706219 6.837656 22.418236
-4.810763 4.458918 18.912554
-16.408531 -8.975484 4.188777
21.509083 -3.698143 17.634933
21.821169 -2.452304 16.737822
-0.729535 -8.037933 21.206705
21.041361 -12.846952 17.163437
14.137339 -1.777865 7.887597
11.052955 1.361628 27.799347
-0.589225 10.957037 17.182371
16.288658 -5.036598 12.872748
11.433405 -6.724657 19.529186
-14.500965 -3.452347 10.252965
4.982815 23.625774 -7.017612
13.763612 20.422783 -7.641362
9.239079 14.169596 18.202229
0.360695 -1.560951 13.619043
-13.372915 5.137384 9.427314
-14.098791 6.188262 9.495479
-15.401076 7.601635 7.107186
-14.760776 11.621197 2.448707
-29.188000 9.504913 -7.244103
11.831458 -2.155232 25.004591
-2.923615 -13.254058 9.666000
2.893570 14.902977 11.430521
3.113823 -11.915881 20.355928
1.197172 -11.239687 19.678808
-1.779627 23.328657 -3.192139
9.574131 -2.765428 4.408091
4.376559 11.334256 23.052738
9.522710 14.143551 21.022596
19.259720 1.589434 13.205420
-4.048021 -3.375538 19.853729
-17.020891 7.840574 3.334409
15.923767 -3.694396 10.698130
6.894840 1.971171 31.335718
3.129120 13.947694 14.503878
-0.358174 -8.814116 21.999746
-2.824534 4.083982 21.188513
-1.838248 13.339610 9.441475
23.693865 -12.472246 8.613810
0.587586 14.459276 10.284742
10.616966 -0.083288 25.243845
6.277244 -13.675812 16.367264
11.343362 -4.468551 7.409756
12.890218 -7.181488 10.967213
-12.788367 11.657789 4.004285
25.422045 -3.865177 9.973483
25.035353 -11.742373 10.786468
-12.721919 -1.056237 12.358284
-33.028732 14.141456 -2.900235
-23.911648 12.763463 -4.920164
-13.240637 -5.263129 9.339805
7.865859 3.467327 20.495907
-6.892152 19.814535 1.577625
14.381985 5.935193 11.700175
10.517699 3.739643 5.289418
-10.099334 1.476642 16.149937
7.158348 13.340500 20.102747
23.359798 -15.970086 15.727238
6.789380 -6.797592 13.714547
1.327292 -6.626476 23.463093
0.011016 -7.266679 22.668312
-25.180323 4.418816 0.872007
18.874943 -0.350886 11.338194
18.416229 -3.489446 15.423734
2.141641 9.569039 23.552816
8.513661 -7.422581 29.412861
21.077105 -3.615840 16.695141
9.269382 -5.019422 19.971184
2.286310 -15.273676 -7.798045
-6.988446 11.683483 10.001275
4.150721 0.038993 17.723223
3.562266 -3.674823 28.112453
2.922734 -0.721361 28.329252
-14.752591 3.050446 9.624104
-15.848920 4.240546 9.087562
-17.638046 9.456339 2.526569
15.764022 -1.968592 9.962918
-1.599680 3.862787 23.449677
9.495822 -9.891158 29.207884
-7.754869 -7.632283 14.854767
10.683709 7.228997 11.319046
20.866385 15.294298 17.800390
7.503574 -21.437208 1.771971
23.688538 4.084186 9.415093
26.653980 9.210314 11.631379
-6.909756 -14.494574 3.233614
30.231501 17.900797 -20.870930
30.518913 6.329217 8.251204
-33.625549 21.380131 -0.511405
-6.279963 14.429839 3.189504
-35.870499 19.089476 -4.187284
-34.721569 22.102760 -2.397488
-31.316980 22.453257 -3.218307
-28.496199 18.944735 -0.345153
25.708475 -2.805674 4.861284
-7.457462 -9.809802 11.168809
10.923588 7.266049 12.859982
15.638709 -0.108241 -7.285453
25.721407 14.169256 12.110854
-35.107368 19.718328 -4.769776
30.951311 -12.926503 8.159503
-8.861238 -5.009757 15.062588
1.682756 -14.015699 12.537220
21.394115 14.329288 10.334816
-17.729755 -0.045733 7.842708
36.709602 7.160297 2.172594
11.330709 2.342582 25.409227
-10.434916 13.990763 1.961246
-3.311555 -13.981506 3.329321
-1.929920 -15.789455 1.647625
22.047064 -14.461001 5.777213
17.484674 15.310779 3.013387
8.293855 2.006293 21.944187
9.759860 5.397296 20.714552
6.375276 3.662331 19.485958
-15.248371 5.829478 7.913335
12.578013 -1.194835 6.485262
14.497109 -4.862423 10.098370
-9.291788 9.442500 11.064193
-9.097292 -4.292596 15.036399
-1.466580 -11.435613 17.042343
22.934469 13.537528 17.083292
16.525108 -15.168968 1.836182
6.453255 -0.841844 5.872332
3.318373 6.582270 13.048489
-14.101396 -0.066478 11.100359
-9.301193 18.311359 1.793692
-3.562098 24.114645 -5.167782
-24.421116 18.803110 0.730262
-3.679482 -5.338799 20.027174
8.630227 1.508078 21.842590
6.952179 0.364432 21.018099
-20.013374 0.719909 4.435325
-14.412040 5.955511 7.626123
15.168034 -2.134674 10.446362
-16.253159 -11.428159 2.461891
26.700285 -11.110082 11.703238
-4.889711 11.897429 12.319284
22.359766 2.680584 16.471621
8.054284 6.151658 16.525572
-13.207087 8.681589 8.332745
28.009291 9.649284 -15.779885
-3.353759 -2.238972 21.803078
9.379346 10.898179 26.645908
10.244421 1.257746 23.920219
-10.559287 -6.604815 13.420451
-11.432495 -12.065657 4.483621
-12.958610 -11.043244 3.984748
24.827333 2.470885 11.135455
-31.589024 17.947428 -1.824777
7.622899 6.732724 6.434906
21.947495 -2.309301 15.689523
17.905342 17.198318 1.849174
-14.544577 -6.876795 8.879182
-31.930401 16.627329 -3.016060
-31.355051 16.272400 -4.594381
11.529037 4.816267 23.402792
-0.080498 -14.044843 6.972121
-24.679497 16.401276 0.301040
-23.274157 15.093156 0.937752
23.191290 -6.374491 9.338626
-0.880333 -13.497835 10.913592
-7.819841 3.457909 16.262547
12.641523 14.538756 14.953521
8.235821 -2.476377 3.773866
-4.375189 6.415675 18.384464
14.481767 -23.482237 -3.185028
29.419764 14.070200 7.655995
6.042933 16.729658 -6.641272
3.204539 20.152521 -6.923668
23.574501 8.096204 8.908932
25.808006 10.868638 10.518090
26.818962 8.371236 4.859721
24.286341 12.094587 14.898482
23.842777 20.728418 -7.163300
32.136669 4.817422 5.570863
34.301342 18.349966 1.425750
-29.136250 24.105028 -1.822295
21.896170 -2.381312 -7.294614
32.921574 -3.005435 6.793920
32.350426 -10.410064 7.296902
28.209177 12.253448 6.295555
7.444150 4.758595 18.973955
-0.930698 -12.364148 14.665890
1.782224 -15.589308 1.805987
20.986973 19.234123 -8.180387
1.277802 -2.101344 11.176697
5.596885 -0.779660 7.074543
24.870564 -4.025761 10.452200
21.416910 15.310826 16.537075
10.802490 -16.424593 -7.467038
11.014676 -14.834368 2.128062
23.416292 0.560207 8.839981
20.101473 5.755164 16.065802
-4.881758 -13.386073 7.788030
-18.520872 19.948025 1.705091
-14.313281 10.639729 4.223621
-14.599245 12.955810 1.754808
19.933310 23.024345 1.696593
26.924726 4.206866 12.299557
-11.775268 -11.573954 3.287589
9.548728 -17.819510 1.927491
-34.094948 21.574404 0.314437
-25.850721 11.131168 -5.829440
30.788454 15.153128 5.208336
-27.818428 9.150787 -6.539205
-5.614874 -11.851989 10.351830
-14.998921 23.442299 -7.443778
8.289096 4.993425 4.928412
-23.796949 11.955801 1.954799
0.635067 -14.621450 2.367591
-3.911751 22.867855 -0.525501
21.854654 15.146845 5.109450
-36.937763 17.541220 -1.307141
-28.052135 9.147359 -1.080268
13.450985 23.787689 -0.594523
10.440999 4.542279 22.620789
21.800886 -22.999741 0.959624
-6.373905 -11.307919 10.181349
-27.867809 18.920076 -4.799612
25.394157 13.270073 13.509023
24.676582 -15.372991 4.739673
25.868008 -6.827986 13.408971
1.931433 4.097920 11.045529
25.288465 12.440032 11.710360
17.087992 5.286657 14.569756
-13.969136 -6.641816 10.144242
19.884468 -18.600018 0.689509
24.405842 -14.065395 10.087706
9.998443 6.431531 17.145285
35.549149 10.840944 1.893022
34.433769 -14.347248 3.892688
34.976555 2.598042 4.803935
35.341297 -1.185578 3.040195
28.340523 11.505198 6.910375
16.110804 13.355194 -7.928109
-31.645386 16.987906 -2.340706
29.150496 -14.848040 3.856608
14.341576 -0.153852 -7.417844
3.611386 -23.509523 -0.247882
29.491959 -14.978298 7.337282
-30.646729 17.269941 -4.219007
19.090420 -5.328132 -7.450310
-24.040543 18.083738 1.708730
3.071990 -23.228054 -5.170927
29.686468 -15.856800 1.467039
-0.522788 -6.778832 22.808071
16.270086 -23.272541 -0.344759
27.730347 13.241135 -8.100845
20.669216 22.641092 -7.613271
-32.846596 21.769119 1.326662
10.066731 -21.595150 1.641478
6.798303 0.578896 5.901330
-0.277861 0.953293 12.346411
26.688686 9.327527 12.573358
-31.083319 17.339821 -4.512088
18.794546 -1.258407 -7.368777
-34.941360 21.320444 -3.690966
28.879768 10.401439 5.973821
-27.454542 17.858826 -6.584017
27.691246 -13.548101 5.394534
24.732460 12.421812 10.083089
36.040997 8.506521 3.708431
23.715420 12.754773 14.494578
28.347784 1.419539 5.837588
29.627018 9.090633 6.247545
28.526651 -7.090680 6.126629
-34.919163 21.153803 -3.801795
32.380520 -7.694711 5.638164
34.056335 -8.347690 5.659803
-18.783789 23.226952 -6.578652
-32.831722 16.188978 -0.344704
23.651215 14.773700 8.870220
-31.319693 15.202370 -1.896470
32.857716 -7.118069 7.474809
24.095577 -2.359301 8.721371
24.205893 -3.899646 7.059228
35.118530 2.712357 3.450405
33.045551 9.478975 6.228134
34.850479 -7.927617 4.645248
32.495281 -4.363377 6.496408
36.733131 5.693566 2.684246
35.968422 6.236210 3.490502
37.912659 16.846134 -6.230984
35.299984 2.101482 3.802516
29.979206 18.231070 -20.658251
34.802006 -7.510941 4.497019
30.022762 -9.228556 7.047475
28.205248 -8.668706 6.988073
20.957035 13.197954 -7.520802
28.395010 4.772488 5.704188
26.737734 9.844797 4.475693
-30.156994 22.786190 -2.659145
29.096979 8.149751 7.706331
25.990145 9.203361 5.131716
29.837330 12.326547 7.527535
31.328367 10.320917 -21.934782
30.167549 -6.431292 7.749919
29.127756 -7.086857 6.701866
30.613964 9.300079 8.573412
26.060465 -7.446476 -8.389069
34.579037 -14.538422 4.211472
33.267345 0.275403 6.411716
27.729069 21.222982 -13.763819
20.449135 -23.645742 -1.510065
14.421570 21.540752 -7.647843
30.691048 -14.564082 1.794280
34.630074 -15.444016 1.424632
29.414989 -1.407706 7.456581
-28.430590 23.624029 -3.306493
32.539330 13.916786 6.169721
30.577963 23.656631 -2.993253
