ply
format ascii 1.0
element vertex 815
property float x
property float y
property float z
property float nx
property float ny
property float nz
end_header
19.124945 -21.403437 -9.541973 0.000805 -0.000940 0.999999
16.953703 -20.035130 -9.531841 -0.268829 -0.000895 0.963188
21.771591 -16.735588 -6.686525 0.003791 -0.005651 -0.999977
-7.453103 4.946970 -10.356716 0.230760 -0.091594 0.968690
1.899184 -5.163649 -9.050997 0.002079 -0.004846 0.999986
-15.840193 15.525801 9.661846 0.003228 -0.000835 -0.999995
-11.891791 34.529114 9.629971 0.262363 -0.964665 0.024231
-16.270842 14.358414 -8.835045 -0.089808 0.003949 0.995951
11.672947 -14.617821 -9.502635 0.626346 0.740710 0.242981
-13.907021 11.950904 -9.434947 0.137459 -0.383242 0.913362
-0.422720 -2.826975 -9.224804 0.014382 -0.013424 0.999807
-4.246726 2.227122 -9.634628 -0.321697 0.193813 0.926794
2.999900 -2.833654 -8.777873 -0.014712 -0.000619 0.999892
19.953457 -20.811316 -9.867655 0.003356 -0.003991 0.999987
-30.880215 13.313762 -8.770178 0.888362 -0.459143 -0.001024
-35.521877 8.054706 -10.238001 -0.005556 -0.824683 0.565568
16.034451 -2.403504 -4.139985 0.772525 0.626872 0.101176
12.374732 -28.904171 -8.879723 0.989383 -0.144414 0.016324
-3.950891 19.959360 7.829320 -0.009010 0.043211 0.999025
-3.758295 2.962389 -9.093302 -0.021809 0.010779 0.999704
4.222970 1.386612 -9.310771 -0.009142 -0.008736 0.999920
0.613859 -1.952567 -8.399154 0.001717 -0.026306 0.999653
-0.440334 6.559645 -8.944451 0.001925 -0.001266 0.999997
15.429669 -10.548570 -7.382109 -0.011287 -0.000976 -0.999936
17.102097 -11.583125 -7.850317 -0.012163 -0.010294 -0.999873
-24.324646 23.515825 9.333309 0.745108 -0.666943 0.000741
-11.376063 -2.811032 -9.446927 0.005782 -0.038721 0.999233
-11.263403 -4.167032 -7.933307 0.375035 0.927001 -0.004267
2.510695 0.923837 -9.736661 0.001987 -0.018147 0.999833
-1.885283 5.214756 -9.744782 0.001077 -0.002539 0.999996
1.990900 13.735387 3.726569 -0.721142 -0.692787 -0.000221
7.125507 8.116788 -6.456008 -0.712836 -0.701200 -0.013547
6.042135 9.425062 -4.071347 -0.867061 -0.496456 -0.041675
0.639495 12.580380 4.473188 0.723163 0.690676 -0.001435
8.887301 4.505488 1.511628 0.720998 0.692937 0.000126
5.808051 10.831912 -6.546722 -0.728574 -0.684399 0.027899
6.127187 7.157213 -4.486871 0.797997 0.602615 0.007492
3.273855 11.596155 1.105125 0.642646 0.766163 0.000829
0.649352 15.384748 7.899501 -0.751209 -0.660011 0.008442
19.199741 -15.066299 -7.706414 -0.010469 0.006582 -0.999924
-2.908213 4.727396 -9.114572 0.002217 0.002316 0.999995
1.777721 -0.844139 -8.986825 0.026991 0.006096 0.999617
-14.479141 22.119375 -9.003692 0.000182 0.000153 1.000000
-0.610970 -1.150057 -9.509910 0.006484 -0.011361 0.999915
-3.200567 2.098421 -9.217402 0.000955 0.001947 0.999998
19.316431 -13.054546 -8.985654 -0.009246 0.015458 0.999838
-1.636295 2.259296 -10.009988 0.002308 -0.006294 0.999978
-0.561604 0.782633 -9.699265 -0.009654 0.001905 0.999952
-20.383610 20.346865 10.465652 -0.947985 -0.289806 -0.131672
-25.104900 20.636463 -1.806029 0.754376 0.655244 -0.039645
-16.041885 6.349194 -6.961660 -0.000337 0.010764 -0.999942
-7.744103 -2.120026 -9.442967 -0.296085 0.111195 0.948667
-4.435612 -4.811424 -9.689645 -0.062484 -0.070281 0.995569
-25.453524 22.728039 -0.391698 0.880912 -0.472593 -0.025486
-20.107304 16.610313 6.277155 0.955458 0.295129 0.000186
-23.589069 20.352058 -1.761683 -0.547586 0.836054 -0.034105
14.678925 -32.889046 -10.222263 0.232051 0.462519 0.855703
-3.187535 19.145981 -9.556992 -0.000439 0.002703 0.999996
16.341419 -0.290635 -9.238017 -0.701222 -0.659424 0.271011
13.995780 -32.302055 -10.875855 0.225607 0.348717 0.909669
-22.084291 1.626021 -8.061671 -0.129777 -0.252245 -0.958922
-24.682251 23.649361 -5.807875 0.746608 -0.665263 0.001117
15.410748 -30.594862 -10.712494 -0.289829 -0.165620 0.942640
-13.415068 -1.581159 -10.025095 -0.190654 -0.474342 0.859448
-22.202700 12.973574 -5.547642 0.567677 0.823250 0.001128
14.291156 -0.875191 -4.984858 0.685689 0.727891 0.002213
8.669910 6.980550 -7.971835 -0.721606 -0.692301 -0.002194
5.331106 10.414355 -7.266994 -0.720904 -0.693034 0.001332
-6.830527 24.121578 -8.456571 0.982135 0.187578 -0.015010
-1.001000 11.281976 -0.606252 -0.925319 0.379190 0.000107
2.217404 12.561625 3.486349 0.718518 0.695508 0.000040
17.201128 -32.989357 -9.501662 0.128913 -0.470530 0.872916
-8.232314 30.581713 7.648664 -0.003100 0.002624 0.999992
-6.209815 23.930201 -9.498312 -0.930878 0.201292 0.304873
8.989901 3.886491 4.224524 0.485335 0.734243 -0.474697
17.516342 -32.765678 -9.358202 -0.176042 0.954756 0.239686
13.008112 -28.716379 -9.060319 -0.398324 0.144216 0.905836
15.988360 0.851627 -4.270147 -0.686941 -0.725597 -0.040263
15.200742 -30.312494 -8.801577 -0.993414 0.113885 -0.012617
14.763690 -30.832586 -8.973501 -0.934005 -0.357106 -0.010517
14.681660 -31.129982 -9.058110 -0.958802 -0.283607 0.016297
-7.811802 -6.551616 -8.707399 0.379962 0.924995 0.003461
-13.700766 0.058293 -9.296851 -0.009132 -0.004692 0.999947
0.697287 18.352907 -6.464429 -0.930518 0.360949 -0.062070
-9.966816 29.681822 -8.731657 0.004632 -0.008553 0.999953
-17.938366 3.522871 -9.411090 -0.000117 -0.002119 0.999998
26.081106 -24.906839 -8.157694 0.052339 -0.056520 -0.997029
-4.405846 33.676781 9.274107 -0.449718 -0.892963 0.019258
-20.213150 5.311080 -9.071843 0.000188 -0.000510 1.000000
-20.635397 5.623543 -8.471886 -0.000064 0.000556 1.000000
10.610466 4.420113 3.500598 -0.502364 0.214491 -0.837630
-4.512808 9.521917 5.534303 0.594192 0.711787 -0.374561
14.848494 -28.507757 -10.955872 -0.149873 0.120602 0.981322
19.582212 -34.383049 -9.310770 -0.577408 0.783042 0.231182
-30.806168 16.582033 -10.212306 0.797867 0.058087 0.600028
-18.428814 4.222679 -8.812157 -0.001344 0.000164 0.999999
14.245758 -28.098316 -10.160841 -0.455894 0.214836 0.863717
-30.683731 16.343287 -8.614435 0.922817 0.385173 -0.007099
-22.741238 22.470919 2.946038 0.363026 0.930316 0.052184
-16.197536 0.748095 -9.087900 0.001411 0.000791 0.999999
-20.931171 19.740597 4.329951 0.954141 0.299356 -0.000556
33.888172 -17.680679 -9.272311 -0.151316 0.988463 0.006622
34.971539 -19.242710 -8.377665 0.251297 0.967877 -0.008047
-24.988060 6.735740 -9.028346 -0.046733 0.187888 0.981078
35.863853 -16.706385 -8.806080 -0.862564 -0.505729 0.014882
-27.956110 10.729575 -8.604258 -0.004756 0.001431 0.999988
-17.319065 -0.464653 -6.941423 -0.168952 -0.505428 -0.846167
16.328539 -34.579819 -7.161183 -0.045132 -0.287644 -0.956673
16.198904 -31.729521 -10.110855 -0.479094 -0.747994 0.459318
4.151663 -9.866471 -6.758632 -0.185547 -0.441015 -0.878111
0.157841 20.160027 -9.550588 0.405398 -0.137052 0.903808
14.078803 2.223644 -4.978174 -0.720859 -0.693082 0.000053
15.867555 -33.150406 -7.235533 -0.071224 0.795310 -0.602005
16.070732 -31.254999 -8.454500 -0.034281 -0.999390 -0.006676
17.483377 -32.184162 -9.829861 -0.029122 0.083575 0.996076
17.805149 -31.658920 -9.662773 -0.070666 0.314689 0.946561
-24.405252 15.194138 -6.158835 0.839910 0.538768 -0.065416
13.747647 -29.968899 -7.771443 -0.233796 -0.031935 -0.971761
8.864204 6.593478 -8.923156 -0.721861 -0.692002 -0.007087
4.652205 11.509307 -8.579190 -0.721552 -0.692332 -0.006271
13.076132 -28.173784 -7.542112 -0.456279 0.271133 -0.847523
-14.900768 10.563908 4.117452 -0.299486 0.954101 0.000216
-30.221066 16.413845 -6.812887 0.640632 0.187586 -0.744582
-3.869582 33.461987 7.445197 -0.260070 -0.538713 0.801344
-4.329604 10.229324 -2.920795 0.932198 -0.358026 -0.053140
19.457478 -34.179256 -7.311601 -0.476180 0.813142 -0.334743
19.009140 -30.951000 -9.390152 -0.665890 0.310138 0.678532
15.566509 -30.269243 -7.616768 -0.941714 -0.208464 -0.264043
14.805428 -29.709393 -6.867434 -0.966993 0.000605 -0.254801
11.258674 4.424461 1.285035 -0.719934 -0.694041 -0.001656
-22.846188 15.247752 -6.107578 -0.572116 -0.820172 0.000126
-19.844070 4.756854 -7.528675 0.001234 0.000466 -0.999999
17.768915 -29.491428 -7.312494 0.928888 0.048220 -0.367208
-7.989880 12.553355 -6.078659 -0.303322 0.952877 -0.004584
-14.387915 11.164241 -1.101846 -0.300061 0.953920 -0.000653
-3.491010 13.774010 0.894326 0.999897 -0.006717 0.012666
1.470069 21.034578 -7.327904 -0.534531 0.138758 -0.833680
18.981548 -28.565838 -6.585175 -0.429273 -0.162286 -0.888475
18.891201 -29.070559 -7.056807 -0.791458 -0.187042 -0.581902
-0.144201 26.021851 10.164011 0.992964 0.089560 -0.077465
25.957598 -13.097499 -9.607539 0.628734 -0.734320 0.255866
-22.471449 16.005600 -3.573860 -0.554128 -0.832431 0.000123
11.978011 -27.438488 -9.586716 0.275473 -0.180967 0.944121
-29.680159 15.056612 -9.275843 0.150400 0.175309 0.972958
21.374523 -30.456255 -7.634693 0.337950 -0.303330 -0.890944
-3.569278 -5.845991 -7.260200 -0.077156 -0.262910 -0.961730
-4.291949 16.243212 5.906195 0.306107 -0.946887 0.098510
-8.091157 -1.837508 -6.975827 0.441934 -0.205952 -0.873085
3.216077 10.358047 8.146574 0.699043 0.713612 -0.045784
23.254658 -30.793705 -8.602813 -0.752496 0.658592 -0.002725
32.646931 -19.070171 -7.735175 -0.979565 -0.181273 -0.087140
0.347336 24.105581 10.162448 0.976129 -0.016783 -0.216545
-16.250368 11.240534 -10.667568 0.018421 -0.277416 0.960573
1.020109 15.095016 7.564810 -0.720027 -0.693943 -0.001982
23.770683 -29.695856 -6.828745 -0.050269 0.037098 -0.998047
21.318256 -29.898071 -7.987086 0.419982 -0.381139 -0.823619
2.355426 -7.442957 -7.317111 -0.220236 -0.558857 -0.799484
-17.303814 13.223973 -5.518751 -0.793774 -0.479242 -0.374498
0.017360 -7.961909 -9.908289 -0.039047 -0.149862 0.987935
-0.766271 -9.145081 -10.057556 0.378694 0.880342 0.285638
-11.428965 2.274635 -8.842340 -0.000116 -0.000513 1.000000
-27.426107 1.885996 -8.422906 0.124789 0.909836 0.395760
23.368925 -30.101355 -6.215269 -0.208713 0.124843 -0.969976
10.487284 -11.680743 -8.043939 -0.198469 -0.367552 -0.908579
-7.016634 5.720901 -7.691118 -0.007118 0.001916 -0.999973
4.288560 -5.442946 -8.191763 0.008906 0.008477 -0.999924
-5.820406 21.992527 9.232253 -0.028671 0.030945 -0.999110
26.103193 -27.770889 -7.034145 -0.581702 0.810276 -0.071243
-13.896515 22.572697 7.885365 -0.034683 0.017638 0.999243
-14.862454 22.441648 8.087171 -0.034705 -0.018118 0.999233
19.467936 -29.721937 -9.979772 -0.336091 -0.014478 0.941719
15.769268 -31.457048 -6.867489 -0.119561 -0.099885 -0.987790
19.405964 -28.750841 -9.364621 -0.681839 -0.313358 0.660986
-13.968489 4.645690 -9.372108 -0.002977 0.000396 0.999996
18.122967 -27.020309 -10.475820 0.138970 0.167308 0.976061
20.733709 -29.553679 -9.626855 -0.546596 -0.205606 0.811763
-2.731616 11.832236 4.151671 0.963200 -0.267994 -0.020618
-30.148869 20.174736 -9.251227 0.633912 -0.739582 0.226219
-21.425640 20.545847 -1.430796 0.951631 0.307124 -0.008554
12.730014 -34.056324 -9.281236 0.686230 0.727359 -0.006046
12.988084 -32.820847 -9.693947 -0.071925 -0.067795 0.995103
-18.873444 -0.314451 -9.249345 -0.112182 -0.295699 0.948672
17.020687 -1.571332 -4.285037 -0.788692 -0.614732 0.008350
-23.247780 8.103446 -6.333031 0.031241 -0.074057 -0.996764
31.394802 -18.262619 -8.598083 0.943339 -0.039781 0.329439
-21.224979 22.614990 10.598050 -0.938805 -0.320693 -0.125701
-4.252532 31.146082 -8.514187 -0.003791 -0.002577 0.999990
-13.415157 22.550262 7.645249 -0.025339 0.020507 0.999469
1.327961 15.456591 -3.792224 -0.743621 -0.668571 0.006399
12.879064 2.690805 -3.181503 -0.720780 -0.693164 -0.000417
34.624825 -14.530197 -8.641509 -0.859885 -0.510393 0.009856
19.923347 -29.394615 -9.963180 -0.088081 -0.042731 0.995196
12.944686 -0.694258 -9.529874 0.278080 0.255057 0.926076
6.107070 7.557913 2.359281 0.653948 0.756233 -0.021543
-22.612240 16.467552 -9.474920 -0.172054 -0.187065 0.967163
-16.403994 8.743425 -9.154637 -0.004337 0.036204 0.999335
4.903764 8.925442 3.003283 0.713440 0.700183 -0.027318
19.537935 -27.443052 -8.721706 -0.015874 -0.008689 0.999836
-8.036393 19.453463 8.122213 0.017937 0.022234 0.999592
-13.584654 25.533289 7.710712 -0.042661 -0.002317 0.999087
-7.321343 17.209124 9.287893 -0.001090 -0.000519 -0.999999
2.308220 24.626093 8.240487 -0.574511 -0.017251 0.818315
-7.954985 34.324711 8.092669 -0.030276 -0.171867 0.984655
-9.694231 19.395418 9.252080 0.027623 0.021416 -0.999389
-25.558020 18.207302 -8.945559 -0.841602 -0.049934 0.537785
-13.658083 8.170219 -8.926451 0.000100 0.000494 1.000000
-12.379483 -2.006734 -7.365454 -0.186950 -0.475624 -0.859553
-10.133368 -4.004310 -6.046762 0.104542 0.268294 -0.957648
14.842209 -1.477105 -9.365884 0.268444 0.241168 0.932618
19.762281 -27.735525 -9.491858 -0.184173 -0.200583 0.962209
-4.222140 16.359131 -9.242270 0.068156 -0.082784 0.994234
32.366535 -18.539705 -7.967345 -0.753546 0.657197 0.016149
-10.885313 7.468424 -9.342092 0.000630 -0.000177 1.000000
4.889949 -8.198996 -9.463529 -0.006869 -0.002835 0.999972
-25.423418 6.949390 -7.570559 -0.088120 0.274891 -0.957429
-10.655685 24.702744 8.885184 -0.937039 0.348462 0.023062
-6.826616 25.627338 -6.313568 0.102643 0.056206 -0.993129
-22.415634 12.720502 8.557227 0.591482 0.806223 0.012409
-22.346334 15.300191 6.406044 0.352268 -0.912737 -0.206928
-19.853046 14.790454 3.709803 0.998926 0.007399 -0.045749
-23.288910 25.285200 -3.782490 0.747857 -0.663859 0.001186
-17.260302 13.428688 2.836271 -0.945446 -0.325775 -0.001467
20.738329 -30.020964 -9.563618 0.086449 -0.032460 0.995727
30.509510 -18.429964 -9.160869 0.309385 0.388218 0.868083
22.673471 -27.383516 -10.010435 0.153360 -0.258850 0.953665
-8.481626 1.867936 -7.483618 0.229307 -0.095564 -0.968651
-12.237219 24.429878 9.492898 0.043218 -0.001453 -0.999065
-14.813415 25.132849 9.916164 0.005358 -0.007707 -0.999956
15.661784 -20.711889 -7.418594 0.969652 -0.119631 -0.213224
-23.658701 17.310509 -7.159711 0.007626 0.012414 -0.999894
22.420713 -28.023907 -7.524189 0.045952 -0.028447 -0.998538
21.617886 -30.766094 -8.797718 0.237989 -0.222926 0.945339
-1.025305 -5.352442 -7.423959 0.001342 -0.015472 -0.999879
-18.507513 29.892277 8.881842 0.747118 -0.664690 0.001189
-17.405727 28.066061 9.869875 -0.651268 0.598370 -0.466695
-5.233118 16.529715 8.551184 0.003405 -0.022015 -0.999752
17.683187 -4.716895 -5.376090 0.714750 0.699356 0.005801
-16.852671 29.345779 7.809254 0.007961 0.001068 0.999968
-8.988955 20.034969 8.874031 0.022495 0.017560 -0.999593
-9.481230 20.824255 9.442438 0.052795 0.129602 -0.990160
-25.082590 19.955391 -8.020141 -0.590877 -0.586206 0.554280
-6.421453 15.304507 6.622743 0.250037 -0.754958 0.606235
-12.405941 5.927499 -7.433924 0.000772 -0.001632 -0.999999
-22.185036 14.589476 -7.353421 -0.012507 -0.001059 -0.999921
16.828182 -8.285822 -9.292920 -0.001817 0.000222 0.999998
17.209227 -23.286711 -7.366884 -0.042794 -0.001198 -0.999083
-11.061437 19.786829 -9.040903 0.005310 0.001443 0.999985
-21.253719 14.413714 1.614930 -0.541467 -0.840558 0.016641
-29.683496 14.191732 -6.726609 0.373257 -0.275955 -0.885736
11.607622 -27.857367 -6.619992 0.465185 -0.149239 -0.872542
-8.283274 12.510456 5.558284 -0.299440 0.954115 0.000111
-6.675027 15.334991 5.679689 0.266354 -0.937848 0.222477
-23.544556 21.159918 -1.058227 -0.686177 0.727167 0.019761
-10.684891 27.497961 -10.012929 0.514566 -0.725324 0.457305
-13.912880 12.221111 -0.946300 0.289980 -0.957033 -0.000533
24.352161 -25.646236 -8.686149 -0.000252 -0.000919 1.000000
-12.225421 19.929434 7.563238 -0.013386 -0.018671 0.999736
-12.549346 2.818307 -9.279493 0.001869 -0.000843 0.999998
13.070517 -32.516766 -7.070137 0.808306 0.585025 -0.066234
11.617332 -33.776333 -8.181906 0.773512 0.633768 -0.004118
-13.308262 11.489246 10.503371 -0.157585 0.396772 -0.904289
-13.748207 28.821196 -7.281121 -0.000079 0.000227 -1.000000
-12.862609 30.086901 -6.713977 0.000040 -0.000070 -1.000000
-18.742992 2.594889 -9.070982 -0.008369 -0.002919 0.999961
-15.372283 5.839412 -9.170683 -0.013594 -0.006261 0.999888
21.612600 -6.701075 -8.186217 -0.720635 -0.693314 -0.001098
18.938896 -26.171555 -9.274944 -0.422016 -0.629639 0.652271
13.666800 -32.009445 -9.882799 0.485762 0.413688 0.769998
-11.888301 -2.604697 -9.528253 -0.220689 -0.543544 0.809849
15.125333 -0.724384 -6.301931 -0.709424 -0.704235 0.027759
-2.516606 17.632944 -7.282706 0.025218 -0.046053 -0.998621
-9.710714 -4.232005 -9.387441 0.098354 0.286094 0.953140
18.203503 -28.953356 -6.900027 0.374552 0.176355 -0.910280
-15.984094 -0.112701 -9.473886 -0.187242 -0.480691 0.856666
-1.810610 32.665726 10.410440 -0.559635 -0.820004 -0.120013
13.126058 -30.509207 -9.155777 0.074428 -0.127629 0.989025
1.212280 23.546213 -6.666066 -0.457373 0.140593 -0.878091
-25.501471 5.064597 -9.181406 0.000105 -0.001564 0.999999
-22.259432 0.573880 -7.213204 0.204084 0.310378 -0.928448
10.625400 -31.164307 -8.946721 0.935407 0.255578 0.244323
-24.901024 20.691046 -7.657513 -0.362334 0.151012 0.919734
17.901012 -22.615883 -7.924124 -0.003614 0.000775 -0.999993
14.682927 -24.943045 -10.535637 0.131755 -0.134117 0.982168
-26.975653 16.435564 -9.903581 0.608613 -0.761685 0.222322
2.449553 -10.043759 -6.911521 0.290278 0.726499 -0.622847
12.295024 -31.320730 -9.277820 -0.112083 -0.043387 0.992751
12.504918 -30.234703 -10.078328 0.354925 0.044865 0.933818
-30.506220 11.378553 -9.975278 -0.125847 0.046377 0.990965
-12.419595 17.113752 7.838021 0.003218 0.030541 0.999528
-12.100929 18.668833 9.687894 0.000590 0.005637 -0.999984
-19.022316 26.723083 9.390100 -0.718665 0.462499 -0.519245
14.956708 -26.812151 -8.919853 -0.212042 0.174770 0.961506
1.162232 13.215839 -9.302220 0.361297 0.306039 0.880798
25.898729 -13.484610 -10.101412 0.869895 -0.368371 0.328001
11.504156 -13.599115 -8.695311 0.506695 0.862078 -0.009016
-24.270277 22.339930 -8.329199 -0.088265 0.048252 0.994928
12.059115 -29.716652 -8.677552 0.225347 -0.036794 0.973584
-20.184189 14.812935 -4.651083 0.356436 -0.927823 -0.109990
-24.134182 12.540232 -9.606646 0.040915 0.070361 0.996682
-5.369737 29.909063 -9.841819 -0.000934 -0.002369 0.999997
24.006416 -23.064688 -7.382423 0.000934 0.000819 -0.999999
-27.184855 9.080413 -9.041609 0.026438 -0.074476 0.996872
-9.673072 9.152233 -7.988791 -0.002199 -0.001035 -0.999997
19.779234 -11.408588 -9.163336 -0.003041 -0.003158 0.999991
-13.872724 34.198475 10.362568 0.414259 -0.898738 -0.143734
7.452957 -6.515475 -8.265241 -0.002567 0.001348 -0.999996
-13.637544 22.540123 -8.230885 0.005895 -0.003114 0.999978
16.821083 -14.704318 -8.976608 -0.000793 0.004017 0.999992
-18.381977 17.110401 -10.146188 -0.351516 -0.107506 0.929989
-17.502419 18.223154 -9.479208 -0.001815 0.002481 0.999995
-7.067637 -6.017971 -9.251941 0.406981 0.888709 0.211101
-8.930061 -5.379951 -9.088143 0.397381 0.906804 0.140698
-10.921754 -2.195724 -9.412363 -0.155519 -0.486894 0.859505
23.653318 -22.491312 -7.951496 0.009804 -0.000511 -0.999952
-19.371927 11.344397 1.348240 0.572836 0.819670 0.000844
22.740913 -21.518772 -7.080287 0.012370 -0.001578 -0.999922
-5.837706 7.076695 -8.124676 0.002920 0.003671 -0.999989
5.081062 -3.815650 -7.695622 -0.011925 -0.006265 -0.999909
-0.185974 19.487757 -6.443450 0.047019 -0.054302 -0.997417
16.594408 -1.313091 -2.828968 -0.710265 -0.699672 -0.077353
16.612894 -31.219452 -6.636029 0.148678 -0.398453 -0.905058
33.558529 -13.884723 -8.250074 -0.320042 -0.941274 0.107597
5.077384 -3.617808 -7.053339 0.001269 0.008081 -0.999967
-13.973948 16.999037 9.308049 -0.009829 -0.032304 -0.999430
-5.971529 8.510945 -7.602385 0.027744 -0.003199 -0.999610
8.185651 -5.870868 -7.397558 -0.000593 0.003667 -0.999993
21.312143 -19.051592 -7.308290 -0.001090 -0.010426 -0.999945
-8.507619 9.659451 -8.446589 0.000043 -0.001091 -1.000000
-22.203901 22.371365 -8.262224 -0.070458 0.060557 0.995675
-22.448559 22.527512 -7.336437 0.342416 -0.268142 0.900473
19.132061 -19.719328 -7.824783 0.000469 -0.000980 -0.999999
-3.347232 32.004879 10.785642 0.532259 0.685479 -0.496808
26.104595 -11.778531 -9.455627 0.153051 0.489931 0.858221
2.167271 -3.759443 -7.917705 0.021953 -0.011070 -0.999698
-34.892609 7.541530 -7.753455 0.547787 -0.836564 0.009520
-3.912158 -7.441104 -9.638762 0.224399 0.490246 0.842202
-20.641666 21.918833 -8.236572 0.459050 -0.267979 0.847030
19.337774 -18.802034 -6.848340 -0.000961 0.000743 -0.999999
-19.226301 19.020588 0.149981 -0.989256 -0.146163 0.003002
4.012673 11.989224 9.535683 -0.684041 -0.313893 -0.658453
17.278133 -8.447567 -7.365950 -0.005854 -0.003147 -0.999978
-20.465326 26.590723 -7.651413 -0.149163 0.069447 0.986371
-12.793986 11.603701 2.676941 -0.299343 0.954146 0.000005
24.721743 -17.406612 -7.424563 0.007741 0.005661 -0.999954
-12.238690 0.908822 -7.241599 -0.001462 0.000687 -0.999999
-12.056996 11.270957 2.956275 -0.304803 0.952415 -0.001029
-14.234617 12.531963 8.685289 0.226650 -0.448684 -0.864472
-17.225477 14.225420 9.086458 -0.008486 -0.003963 -0.999956
-4.421579 20.748117 7.197862 0.005244 -0.006152 0.999967
27.370714 -13.462975 -7.581769 0.005465 0.212509 -0.977144
-18.713701 10.813913 6.149312 0.693557 0.720100 -0.020868
-19.715387 10.908310 8.218420 0.601486 0.798883 0.000820
-16.928825 12.753843 6.077624 -0.478786 -0.603252 0.637848
23.136219 -16.194094 -7.453617 0.002011 0.001057 -0.999997
-23.339340 17.336935 -8.199209 0.003908 0.005980 -0.999974
-16.906347 30.133556 7.680603 0.128196 -0.123361 0.984047
-25.422300 18.112268 -9.781429 -0.902454 -0.020199 0.430313
14.782634 -23.147018 -9.528419 0.348505 -0.103999 0.931519
15.268310 -20.468533 -8.233769 0.980895 -0.031558 -0.191960
-22.471001 18.940956 -8.287916 0.403281 -0.340941 0.849190
-20.436342 12.849495 -10.005702 -0.040081 -0.137946 0.989628
15.908676 -23.519642 -8.632862 -0.216723 0.074642 0.973375
16.171150 -2.670725 -3.737244 0.734590 0.678471 -0.007372
17.642365 -6.962942 -8.153508 -0.000846 0.002309 -0.999997
5.435734 9.938755 -2.441658 -0.782924 -0.619609 -0.055809
-17.971045 27.556641 -8.535167 0.458267 -0.241421 0.855399
24.156757 -14.577245 -6.924963 0.002694 -0.001175 -0.999996
-13.892267 -3.067653 -8.331777 0.378570 0.925566 -0.003638
9.122370 8.296368 -2.640189 -0.651932 -0.758254 0.005985
-26.649124 20.512548 -10.219770 -0.150969 -0.965322 0.212984
12.231690 -30.794497 -7.331444 -0.350917 0.072278 -0.933613
3.694551 -9.541141 -10.523461 0.175546 0.424160 0.888410
15.365499 -22.662848 -8.082315 0.954437 -0.297745 -0.019951
-25.026144 21.146429 -3.548275 0.683941 0.728935 -0.029644
-20.934605 13.358200 -9.380481 0.107460 -0.130128 0.985657
15.026949 -22.480682 -9.211891 0.482323 -0.022931 0.875693
-2.437334 27.966057 7.242479 -0.036070 -0.014419 0.999245
-19.712748 14.169406 7.658941 0.861057 -0.502547 -0.077643
3.884007 -8.709428 -8.634226 -0.133076 -0.181040 0.974431
19.265736 -7.868330 -7.369330 -0.003110 -0.001478 -0.999994
18.255720 -23.708174 -9.460418 0.001777 -0.001489 0.999997
-25.192226 20.866442 -8.450363 -0.682851 -0.683189 0.258780
25.030642 -14.552734 -6.870505 0.211496 -0.043483 -0.976411
-20.945011 20.450891 -4.343710 0.952210 0.305438 0.002090
-17.539551 27.880018 -8.310133 0.276168 -0.167968 0.946318
-10.237115 6.294114 -9.139089 0.000400 -0.001231 0.999999
-0.038790 26.825466 -9.427282 0.487001 0.154134 0.859694
14.986011 -3.415658 -7.291820 -0.003853 0.003604 -0.999986
-17.757732 13.726310 6.189229 -0.862603 -0.379149 0.334906
-17.759048 12.929444 6.963763 -0.641199 -0.403744 0.652575
22.007246 -10.665584 -7.303869 0.004162 0.005537 -0.999976
-16.948927 25.509077 -6.753573 -0.000166 0.001176 -0.999999
19.273342 -16.053417 -6.835372 -0.006970 0.001837 -0.999974
24.041706 -18.994122 -8.709894 -0.001545 0.001461 0.999998
21.731836 -22.019997 -8.979514 0.003195 -0.006109 0.999976
-24.600464 20.918507 8.505929 0.122128 0.992194 0.025238
-2.738679 26.245264 9.407155 0.021931 0.010040 -0.999709
2.413465 12.488945 -8.441205 -0.721950 -0.691821 -0.013105
-18.441818 26.117035 -8.525211 0.391016 -0.231540 0.890784
-25.144360 22.374628 -4.030367 0.978877 -0.196230 -0.057382
-13.437910 -4.312575 -8.313022 0.377298 0.926050 -0.008781
15.074591 -7.410699 -8.126142 -0.003847 -0.001145 -0.999992
-2.241566 11.127892 -5.742962 -0.919200 0.393646 -0.010683
0.993822 29.738886 -8.643861 -0.883552 -0.468266 -0.007853
1.551886 29.442186 9.388615 -0.879210 -0.476286 0.011936
-3.267133 24.434916 9.572557 -0.027445 0.000565 -0.999623
12.822900 -25.556019 -8.753412 0.793091 -0.609098 0.002535
17.449791 -20.907070 -8.849786 -0.218847 0.034048 0.975165
-16.822422 10.935697 -9.417432 -0.110208 0.274550 0.955236
-19.678223 13.103197 -9.631560 -0.052352 -0.030748 0.998155
-25.469173 19.846033 -9.563037 -0.726758 -0.282005 0.626336
3.705707 -9.565344 -10.286111 -0.029449 -0.086167 0.995845
15.403461 -21.827505 -9.679529 0.830659 -0.108000 0.546206
-7.380944 2.279508 -9.721152 0.421250 -0.147058 0.894943
17.929678 -2.755498 -5.410159 -0.704002 -0.710018 -0.015996
17.296591 -25.781168 -7.078002 -0.003327 0.004051 -0.999986
8.158768 -9.479858 -9.135482 -0.232497 -0.446167 0.864223
16.808733 -19.553165 -9.470072 -0.497521 -0.042035 0.866433
-13.074050 8.875445 -8.381251 -0.002408 0.001770 0.999996
-0.775027 24.801989 7.768476 -0.046345 -0.001460 0.998924
25.131763 -16.339014 -9.449546 0.001799 -0.001306 0.999998
4.146156 -4.770046 -8.988049 0.000639 -0.000968 0.999999
-6.161964 5.732326 -9.678326 0.187491 -0.071594 0.979654
18.407785 -19.406696 -8.803555 -0.003570 0.001644 0.999992
-20.067844 21.559851 -8.046737 0.501090 -0.285234 0.817038
18.699203 -18.430624 -8.535051 0.001794 0.000342 0.999998
18.147421 -18.224836 -9.924004 0.000846 0.001480 0.999999
-20.833281 20.917091 -9.204582 0.530101 -0.304444 0.791396
21.071020 -18.399223 -8.232814 0.000684 0.005608 -0.999984
-19.807549 22.904602 -7.999604 0.244385 -0.143931 0.958937
-18.979465 18.755371 -4.186883 -0.950894 -0.309138 -0.015334
27.541098 -10.581861 -8.355042 0.122739 -0.992437 0.001867
0.205574 19.638035 11.204232 0.075165 -0.016415 -0.997036
-20.323442 23.604301 -8.288452 0.452686 -0.232523 0.860819
16.632261 -13.580237 -7.337977 0.000129 -0.003748 -0.999993
19.707237 -16.652317 -7.433407 -0.000770 -0.006257 -0.999980
-25.404026 22.427168 -7.059950 0.747897 -0.663790 -0.005794
-13.690112 25.873283 -9.097661 0.012520 -0.002307 0.999919
23.804356 -10.943151 -9.149153 0.367407 0.458882 0.808974
-10.945182 23.710539 -9.443794 -0.889258 -0.456289 -0.031936
21.130743 -8.043112 -9.027139 0.349538 0.418135 0.838443
21.047316 -23.243834 -7.843752 -0.000351 -0.004893 -0.999988
-21.884892 20.116478 -7.307535 0.452646 0.293710 -0.841930
-7.088130 14.068528 2.702585 0.220324 -0.975352 -0.012108
16.428249 -19.207653 -7.598924 -0.430661 -0.061290 -0.900430
15.769659 -19.173525 -7.160412 -0.305969 -0.045835 -0.950938
1.631066 -0.955819 -9.481308 0.008299 0.001144 0.999965
10.156013 5.209891 2.217030 -0.720512 -0.693438 0.002457
3.016260 12.743073 3.030619 -0.706132 -0.708070 -0.003813
0.479933 -1.755013 -9.585337 0.004641 -0.018826 0.999812
21.300404 -16.238916 -8.424582 0.002654 -0.008628 -0.999959
-4.731844 3.119395 -9.581119 -0.004835 0.003187 0.999983
-2.384960 3.916762 -9.324306 0.002071 0.001979 0.999996
15.695519 -12.075686 -8.007486 -0.008874 -0.002116 -0.999958
2.060020 1.219554 -10.327724 -0.001825 -0.022638 0.999742
8.873344 6.457133 -9.308020 -0.742024 -0.659474 0.120398
-0.853215 5.002501 -9.306242 0.004649 -0.007289 0.999963
20.342812 -14.919919 -8.009249 -0.009597 -0.001188 -0.999953
-1.833441 12.071082 -1.100618 -0.911515 0.411103 0.011582
-10.975062 -5.440404 -9.743317 0.413060 0.898892 0.146202
25.064804 -9.755080 -8.199830 -0.471203 -0.881095 -0.040480
-20.842155 11.781341 2.169852 0.568618 0.822602 -0.000076
9.906894 6.662312 1.369783 -0.721023 -0.692912 0.000058
-0.626732 -1.547536 -7.625654 -0.000696 0.007850 -0.999969
4.432167 3.619023 -7.210605 -0.003057 -0.001981 -0.999993
-3.760105 1.604701 -7.907289 -0.000475 0.001123 -0.999999
-4.477383 6.098606 -3.195534 -0.896524 0.442974 -0.004432
0.966824 7.520426 -7.315251 0.004105 -0.001629 -0.999990
-24.311625 21.457975 -1.954438 -0.098812 0.991775 -0.081358
-4.489059 16.173458 7.765755 0.211605 -0.638284 0.740147
24.013437 -8.690044 -8.192166 -0.687745 -0.713936 -0.131537
19.307520 -13.425150 -7.241102 0.001534 -0.003589 -0.999992
-36.645790 3.066905 -10.274567 0.637371 0.754279 0.157550
-5.502776 24.330294 7.435108 -0.000966 -0.000217 1.000000
-22.310440 25.056049 -8.077251 -0.264504 0.180654 0.947313
18.546618 -16.857134 -9.482969 0.001495 -0.001573 0.999998
-36.643188 4.637525 -8.007554 -0.957044 -0.289553 -0.015016
-35.375591 2.002668 -7.470679 0.038418 0.975878 -0.214911
-29.946106 7.117111 -7.542435 -0.010282 -0.062240 -0.998008
-19.081312 20.882948 -9.418743 -0.045834 -0.008391 0.998914
-36.890942 3.447658 -8.760558 0.600016 0.558674 0.572594
14.231051 -17.713167 -7.950939 0.690121 0.259969 -0.675389
-32.615242 2.822875 -6.784929 -0.127989 0.157592 -0.979175
-22.350475 23.940876 -8.189016 0.017787 -0.265954 0.963822
-20.312286 17.181461 -9.185356 0.474402 0.150717 0.867310
13.785200 -17.651999 -9.464030 0.844268 0.331082 0.421421
13.957167 -18.054295 -8.502460 0.956969 0.290056 0.008871
-17.371861 15.555502 -6.573303 -0.711995 -0.180300 -0.678642
-20.903303 15.889560 -5.285097 0.951137 0.308765 -0.001326
0.491618 22.286335 8.088296 -0.010396 0.000846 0.999946
-19.800474 15.127208 -5.389992 0.967412 0.252893 -0.012607
18.292257 -16.972057 -9.928737 -0.003605 -0.001598 0.999992
16.414867 -16.706146 -9.061320 -0.001624 -0.004687 0.999988
14.822730 -16.802881 -7.241564 0.205361 0.206943 -0.956557
-19.673693 19.736662 -9.529509 0.155585 -0.363053 0.918687
-9.805946 24.766661 10.570102 -0.116153 0.162551 -0.979840
-19.443033 19.608704 -10.195267 -0.390769 -0.099723 0.915071
-3.959589 13.703299 1.568663 0.601558 0.798014 -0.036079
-3.490355 13.117484 0.480725 0.922001 0.386844 0.016338
-8.441513 -2.071368 -9.421122 -0.228963 0.072812 0.970708
-5.123392 -5.774817 -9.471158 -0.111459 -0.239160 0.964562
12.400904 3.586339 -1.378006 -0.703698 -0.710499 -0.000676
-19.319845 17.838581 -8.658486 -0.344426 -0.102999 0.933146
16.459610 -16.455347 -9.460275 -0.389083 -0.140748 0.910387
14.707459 -16.512453 -9.422771 0.279388 0.045886 0.959081
-20.115673 17.217363 -9.887248 0.031221 0.016325 0.999379
15.347573 -16.555326 -9.479227 0.264767 0.057134 0.962619
-17.802193 17.298201 -9.908499 -0.391486 -0.146315 0.908477
-11.919064 24.186859 -9.601346 0.929208 0.059333 0.364763
-2.808466 31.709021 -9.613859 -0.448839 -0.634124 0.629627
21.616655 -9.388679 -9.380424 0.119647 0.172007 0.977803
1.806445 22.031979 8.998063 -0.968288 0.249316 0.016128
-10.351733 23.889608 -11.072719 -0.481749 -0.142389 0.864664
14.536573 -15.937786 -9.698066 -0.232333 -0.149833 0.961026
24.244408 -24.036848 -9.547180 -0.001752 0.000510 0.999998
-24.135828 12.788349 -7.699905 0.002916 0.001081 -0.999995
20.455687 -12.063901 -7.089322 0.003268 0.000464 -0.999995
6.847875 -6.881204 -9.232726 0.000602 -0.000135 1.000000
-27.247021 8.758213 -7.635576 0.012103 -0.037697 -0.999216
-9.292390 8.599412 -9.040442 0.000478 0.000210 1.000000
16.110561 -15.485164 -7.774333 -0.002461 -0.003215 -0.999992
-15.876799 10.037801 -3.024974 -0.326157 0.945298 -0.005813
-7.654945 31.571941 7.833278 -0.001065 0.045422 -0.998967
17.173685 -10.441053 -7.181288 -0.003178 0.008418 -0.999960
-3.908503 5.445229 -2.953739 -0.928670 0.370822 0.008000
-22.694633 13.182664 5.943256 0.537795 0.843075 0.000903
-19.610668 11.472852 1.730218 0.572384 0.819985 -0.000146
-6.619728 15.242869 2.407557 0.208501 -0.977609 -0.028434
-4.882994 16.078869 5.720560 0.312254 -0.949256 0.037561
-22.072910 22.386282 -2.757145 0.158074 0.982263 -0.100854
1.053269 23.217939 7.782925 -0.003947 -0.001161 0.999991
-11.902148 27.303955 9.096074 0.030597 -0.030794 -0.999057
-24.553085 21.958952 0.343981 0.913669 -0.396124 -0.091076
12.644758 -14.536635 -7.260423 0.675735 0.728920 -0.109807
-11.426423 13.880265 -3.933892 0.303008 -0.952408 -0.033241
12.972758 -15.502311 -6.948231 0.717869 0.696171 0.003279
-22.413944 25.117195 -3.868047 0.747542 -0.664214 0.000528
-19.219328 29.199366 8.352185 0.660247 -0.531659 0.530484
-7.410806 16.123034 7.519681 0.047027 -0.093493 0.994509
-15.885788 25.004816 7.140543 0.033918 0.016118 0.999295
12.240976 -14.749321 -8.046128 0.623816 0.768694 -0.141288
23.499422 -8.108188 -6.711147 -0.787265 -0.408076 -0.462265
-30.824068 4.703269 -7.852870 -0.090966 -0.003751 -0.995847
-28.269600 8.060795 -8.026323 0.141033 -0.436078 -0.888789
15.583375 -16.815849 -7.803038 -0.463416 -0.300293 -0.833709
26.818825 -26.721334 -9.785927 -0.256173 0.243912 0.935351
26.925915 -25.734930 -8.834282 -0.587919 0.808907 -0.004663
-29.841988 7.037971 -6.537224 -0.017263 -0.048913 -0.998654
29.485804 -24.633787 -10.424902 0.149010 -0.240268 0.959202
-0.726570 19.772234 9.558959 0.427623 -0.226487 -0.875124
14.612439 -16.261335 -7.658663 -0.210293 -0.168298 -0.963044
14.990981 -14.320272 -9.644196 -0.191520 -0.124339 0.973581
-16.112583 17.604206 -9.316516 0.004612 -0.000073 0.999989
-20.451874 17.074173 -4.579316 0.954146 0.299341 0.000006
-32.748360 4.038915 -7.223444 -0.242387 0.079732 -0.966898
-23.786209 11.092258 -9.994905 0.021525 -0.102648 0.994485
-15.208800 22.289843 -6.590221 -0.000485 -0.000053 -1.000000
-14.330385 21.915043 -7.183353 -0.000426 -0.000088 -1.000000
21.671688 -8.955873 -7.813750 0.249745 0.324016 -0.912492
-27.892933 7.810456 -7.203154 0.104402 -0.389239 -0.915201
-30.990965 4.871522 -7.543638 -0.211897 0.020895 -0.977069
-20.754114 18.754910 7.417399 0.954021 0.299739 0.000161
18.764952 -26.527109 -9.609367 -0.001283 -0.007054 0.999974
-27.802164 21.090794 -9.093190 0.054539 -0.998104 0.028544
-24.318739 21.108570 -4.831853 -0.689380 0.724026 -0.023257
14.843351 -2.437090 -7.633194 0.245455 0.204786 -0.947531
-18.325691 -1.397019 -9.065570 0.368322 0.929697 0.001675
-17.948301 -1.622765 -9.353854 0.372492 0.863152 0.340908
-22.281040 21.052311 8.724884 0.909225 0.414677 -0.036792
-22.281845 20.847097 8.350065 0.933667 0.358135 -0.002222
-15.512816 12.821909 8.068333 0.048690 -0.397937 0.916120
-18.923925 12.698585 11.593946 0.007605 0.017717 -0.999814
-15.354152 14.194525 7.843928 -0.106452 -0.062256 0.992367
-19.156338 13.718554 10.996318 -0.133410 -0.014116 -0.990960
-20.131304 16.909763 10.005685 0.951923 0.306078 0.012629
-15.483512 13.484972 7.545178 -0.060522 -0.054601 0.996673
4.354299 8.961531 -1.180805 0.750155 0.658579 0.059505
-15.381674 10.802845 10.917060 -0.156381 0.871278 -0.465210
-19.712109 15.332008 11.207492 -0.211211 -0.143630 -0.966830
5.854315 7.895831 -1.152158 0.649021 0.760751 -0.005483
8.674068 8.319881 1.695616 -0.720643 -0.693306 0.000073
5.395256 11.221129 1.733982 -0.844042 -0.535948 0.018777
0.187388 29.521908 -8.309976 -0.834796 -0.475202 0.278026
-23.163759 15.346292 -4.257461 -0.577393 -0.816465 -0.001778
13.566715 -7.458080 -7.601932 0.003511 -0.000344 -0.999994
22.634996 -14.834081 -7.751722 0.015091 0.005841 -0.999869
13.999775 -23.863050 -9.041011 0.899106 -0.420405 0.121933
-4.425937 15.715950 -4.236059 0.301270 -0.953454 -0.012724
8.666662 4.033373 -8.838345 0.342797 0.377062 0.860416
17.510889 -20.586964 -8.634246 -0.069094 0.010604 0.997554
5.496272 0.274006 -9.509863 0.012846 -0.016911 0.999775
-2.462565 7.472974 -9.324978 -0.007462 0.002633 0.999969
0.491871 28.604643 -9.604011 -0.005199 0.046544 0.998903
-22.558294 12.576941 -1.250830 0.567892 0.823103 -0.000411
8.042938 -10.976637 -7.070880 -0.221290 -0.468331 -0.855393
6.774632 -12.185144 -6.388145 0.234550 0.629066 -0.741123
-22.054750 11.901983 3.190742 0.567967 0.823051 -0.000085
-8.953409 -0.591832 -7.910073 0.027545 -0.015558 -0.999499
-23.047356 12.317287 0.975189 0.566237 0.824242 -0.000106
-20.485970 14.373354 -7.915158 -0.118666 -0.894205 -0.431642
-23.665800 16.873886 -7.635196 -0.198133 0.011030 -0.980113
-1.672614 -4.911853 -7.133059 -0.017734 -0.020828 -0.999626
15.166444 -22.157049 -8.118687 0.971192 -0.187219 -0.147430
-21.542101 14.214418 2.945696 -0.536575 -0.843789 -0.010388
2.203691 11.992525 4.621264 0.720497 0.693458 -0.000012
0.527173 0.107405 -9.354115 0.007636 -0.005098 0.999958
-3.972823 3.563669 -9.097884 -0.019210 0.001861 0.999814
-20.449268 14.309860 -1.555086 0.927444 -0.372984 -0.027042
6.741622 6.958126 0.931801 0.699699 0.714438 -0.000076
5.207706 9.196911 1.614752 0.894800 0.446172 0.016217
1.471205 13.140395 0.559241 0.630104 0.775831 -0.032495
-30.689287 17.298857 -6.881227 0.256313 0.012267 -0.966516
-23.170393 25.020061 -7.110202 0.748162 -0.663465 -0.008257
9.842506 2.387553 0.364504 0.727173 0.686452 -0.001592
9.136054 6.538073 -0.889132 -0.721034 -0.692900 -0.000034
13.594431 -29.742022 -6.698039 0.822729 -0.029567 -0.567664
-3.884861 21.390776 -6.043509 0.000375 0.000012 -1.000000
-10.886690 11.694845 10.776363 -0.295631 0.954942 -0.026235
-20.892262 14.155211 5.521290 -0.507621 -0.860544 0.042257
-20.789373 13.386802 5.266272 -0.064322 -0.997721 0.020403
-14.453193 12.187016 -3.271302 0.255436 -0.966207 -0.034583
-18.311262 8.860722 -2.006277 0.505697 0.854274 -0.120363
-15.801531 12.041825 -1.208790 -0.192635 -0.981248 0.006653
-18.547838 11.125808 2.896376 0.575462 0.817828 0.000042
-21.144922 17.550955 9.152484 0.954130 0.299391 0.000097
-20.270905 10.951664 2.280294 0.572336 0.820019 -0.000053
-21.364866 18.833994 9.610867 0.954314 0.298800 0.002119
-21.103554 13.439260 3.380554 0.270804 -0.961955 -0.036153
-19.897552 -0.690008 -10.890292 -0.000074 -0.051895 0.998653
0.316841 16.947767 0.144241 -0.933300 -0.358117 -0.026507
20.048067 -24.437490 -7.058479 0.001419 0.000994 -0.999999
20.184809 -7.782350 -9.142143 0.386052 0.381017 0.840113
-9.391451 23.551603 -8.878713 -0.760284 -0.648467 -0.038177
-20.012150 13.188562 6.724329 0.485298 -0.867584 0.108558
-19.107065 17.374889 2.374980 -0.940130 -0.305435 0.151213
-21.561401 13.657488 7.415908 -0.126886 -0.990559 -0.051892
-35.778355 4.073277 -9.466651 -0.659726 -0.750063 0.046544
27.277445 -25.573769 -9.019074 -0.012760 -0.050327 0.998651
25.779951 -22.622719 -7.989427 0.001531 -0.001033 -0.999998
-4.835966 6.605160 -9.564989 -0.146752 0.038640 0.988418
-5.622174 26.196686 -8.672027 -0.512259 -0.267259 0.816188
16.941082 -10.651195 -9.309975 0.013987 0.003456 0.999896
-12.948445 19.459679 -8.954778 -0.000000 -0.000000 1.000000
-34.654621 3.279192 -9.624657 -0.404552 -0.904170 0.137165
-2.845391 15.639925 0.726748 0.300013 -0.953935 -0.000665
15.051542 -0.463429 0.101802 -0.196452 0.586477 -0.785780
10.943784 -28.546869 -9.406775 0.925804 -0.287649 0.245246
-35.992493 8.064292 -10.152385 0.257775 -0.358476 0.897244
-36.670460 7.513395 -8.922348 0.729157 -0.684202 -0.014053
-35.599617 5.896007 -8.752393 -0.972120 0.233944 -0.015899
-35.472733 6.315271 -10.081961 -0.735751 0.669305 0.103448
-8.943670 12.619978 3.928064 -0.218868 0.975715 -0.008778
-10.764348 18.713303 -9.026141 0.001106 -0.002568 0.999996
16.044666 -23.154678 -6.778795 -0.193507 0.081196 -0.977733
16.473789 -8.590520 -9.500904 0.000512 -0.000991 1.000000
-37.046238 7.467964 -8.820196 0.817577 -0.575661 -0.013508
20.209478 -5.314527 -9.616813 -0.565166 -0.445128 0.694585
-35.243271 6.346671 -10.301240 -0.283574 0.545039 0.788998
7.907108 5.348807 -3.705302 0.720999 0.692936 0.000017
7.635251 1.168386 -7.951223 0.011777 0.006926 -0.999907
-1.016396 9.765577 -7.972533 0.000605 0.001463 -0.999999
-8.803658 17.278767 7.735424 -0.022156 0.011327 0.999690
-8.023101 18.653200 9.160137 0.030318 0.008335 -0.999506
-21.133102 18.398016 -2.819737 0.954057 0.299627 0.000000
-24.548658 3.674455 -9.360291 -0.002293 -0.005256 0.999983
-4.628138 8.868758 4.528286 0.952569 -0.301214 -0.043387
-19.143221 27.956776 7.504787 -0.010280 0.002011 0.999945
-27.064665 18.744463 -9.032951 0.243989 0.943712 0.223332
-16.898994 28.149801 9.427089 -0.036773 0.052708 -0.997933
-4.739798 7.795155 2.888184 0.380987 0.831770 -0.403743
14.306697 -13.729495 -7.561106 -0.300130 -0.381881 -0.874122
-21.243484 25.740828 6.535756 -0.864649 -0.208428 0.457099
-22.073536 9.991385 -7.392082 0.122269 -0.473353 -0.872346
-24.969105 8.845122 -9.247345 0.117087 -0.426230 0.897005
-24.637995 7.877984 -7.813378 -0.120545 0.398598 -0.909169
14.650969 -13.140518 -7.541324 -0.008470 -0.012591 -0.999885
-22.020136 11.182444 -7.470385 0.110052 -0.356128 -0.927934
21.605165 -5.367826 -7.776537 -0.722083 -0.691807 0.000444
12.972121 -13.896551 -7.387784 -0.191323 -0.169546 -0.966773
-29.507145 14.153234 -9.845478 -0.495346 0.206233 0.843861
-23.470772 13.838520 -3.428647 0.557578 0.830115 0.004083
-35.961544 6.198595 -10.811399 -0.380066 0.140573 0.914215
-13.022620 11.243326 8.065918 -0.298682 0.954353 -0.000217
-32.100418 5.302125 -6.157980 0.112607 0.021247 -0.993412
-37.340977 3.970120 -8.636602 0.844199 0.535957 -0.008854
-24.581142 14.339827 -5.805364 0.557685 0.830051 -0.001726
26.914349 -9.010735 -9.546117 -0.014306 -0.950784 0.309524
-12.572115 28.886852 -9.226229 -0.004191 0.002978 0.999987
-19.368670 18.479746 -6.028287 -0.898648 -0.300569 -0.319517
-10.987388 29.564245 8.606341 0.005050 -0.012663 -0.999907
-9.954417 12.289244 6.532205 -0.301617 0.953385 0.009163
-22.221823 12.192309 6.197676 0.565374 0.824835 -0.000281
-7.705037 -2.384270 -9.715019 -0.403366 0.133385 0.905265
-20.331947 21.284441 -4.990225 -0.952397 -0.295044 -0.076736
-26.722809 11.203921 -7.747688 0.001046 -0.000596 -0.999999
7.801641 -6.893572 -9.178022 -0.000133 -0.000246 1.000000
-3.657571 35.169563 -7.520891 -0.419320 -0.907810 0.007175
-33.392441 4.108762 -8.557322 0.674470 -0.737116 0.041848
-8.869381 10.708984 -8.623001 -0.002122 0.002161 0.999995
-33.014160 4.663916 -8.373380 0.943634 -0.329511 -0.031269
-35.980640 3.000352 -7.065593 0.312997 0.264497 -0.912181
-9.164875 30.511278 -6.311990 0.000204 0.000739 -1.000000
-32.458469 4.807618 -7.776852 0.913031 -0.407452 -0.018920
-36.053856 4.890340 -7.614696 -0.999576 0.026293 -0.012505
-2.554190 22.731260 9.108166 0.011772 -0.006662 -0.999909
-5.317517 -4.397072 -7.751551 -0.020010 -0.109896 -0.993742
-6.788193 -3.677075 -7.117149 -0.026904 0.009209 -0.999596
-32.083241 6.208586 -9.744643 -0.425121 -0.070965 0.902350
-7.667217 -2.925866 -7.091760 -0.467310 0.166960 -0.868185
-4.801241 -5.808342 -8.000930 -0.181398 -0.456581 -0.870993
19.464836 -9.122183 -9.256997 -0.001438 -0.003113 0.999994
-11.201686 21.434135 -9.190515 0.097545 0.146590 0.984376
22.378323 -12.072563 -9.331331 -0.000963 0.002074 0.999997
-14.403893 23.831085 -8.869974 -0.006041 0.001625 0.999980
-31.812244 8.046505 -9.571827 -0.139524 -0.077398 0.987189
-28.256929 4.445558 -8.664362 -0.056243 -0.218199 0.974282
-27.354576 8.015666 -9.731883 -0.097723 0.400057 0.911265
-0.353390 17.083136 -0.882260 0.289221 -0.957181 0.012525
14.738260 1.048659 -1.032006 -0.751316 -0.657561 -0.056022
-5.847644 5.663318 -9.555023 0.256969 -0.133930 0.957094
-1.623145 -7.584644 -9.968307 -0.119006 -0.260883 0.958007
-32.457737 8.830498 -7.672931 -0.363899 -0.125116 -0.922997
-27.753756 3.440168 -7.511315 -0.109807 -0.313551 -0.943201
-2.866986 16.688610 10.500457 0.572761 -0.783133 -0.242171
-20.804911 24.411074 1.692598 -0.956666 -0.291177 0.002616
-6.063490 25.532429 -9.722941 -0.311804 -0.293451 0.903695
-23.441383 12.959085 -5.927813 0.560311 0.828227 0.009551
-21.212315 17.613098 -3.678294 0.954141 0.299356 -0.000004
-23.207016 24.319054 5.073854 0.746447 -0.665445 -0.000413
-3.470054 16.335634 11.489492 0.196758 -0.356810 -0.913221
-36.473881 6.359071 -7.375433 -0.980729 0.185119 0.062462
-30.035856 5.276385 -6.934281 -0.101111 -0.047102 -0.993760
-31.428209 3.332824 -7.291641 -0.287056 0.393396 -0.873406
-25.322962 21.040012 -6.659084 0.222763 0.356502 -0.907350
-19.035267 18.059286 -2.211933 -0.960387 -0.268693 -0.073899
-20.368458 22.230616 0.841692 -0.954155 -0.299313 -0.000043
24.340250 -15.419453 -9.239324 -0.005799 0.001352 0.999982
28.864304 -17.117002 -7.072930 -0.123150 -0.231869 -0.964920
-24.721472 22.383177 5.826068 0.996983 0.077614 -0.000416
7.165415 1.417635 -8.168676 0.014087 0.002258 -0.999898
-0.864157 10.379065 -7.920222 0.009613 -0.003681 -0.999947
-16.538933 27.500408 -8.593812 0.503090 -0.287044 0.815173
-31.417221 7.112559 -6.594697 -0.152460 -0.389950 -0.908127
21.318155 -17.529009 -7.347195 0.001793 0.000712 -0.999998
-18.023432 10.217461 8.602338 0.754486 0.656223 -0.011053
-33.254078 8.749804 -7.295661 0.788371 -0.243159 -0.565107
-29.234631 5.252976 -6.580699 -0.339271 -0.365309 -0.866859
-19.862669 24.337490 -8.849557 0.350433 -0.197338 0.915562
-13.368065 12.408080 9.068567 0.089324 -0.422228 -0.902078
-16.154243 -2.934644 -10.180033 0.254598 0.835551 0.486862
-22.474693 12.631733 -0.519335 0.563875 0.825860 0.000102
-32.353992 2.803655 -6.179339 -0.095307 0.799365 -0.593239
-21.822279 14.599598 -6.255396 -0.571464 -0.820623 0.002746
-20.887323 17.642679 -3.497634 0.954132 0.299385 -0.000015
-23.552031 13.844845 -4.821202 0.556590 0.830782 0.002988
-20.098907 18.193102 -3.985589 0.954182 0.299228 0.000007
-23.017582 24.470201 6.245817 0.746675 -0.665188 -0.000560
25.592014 -10.776965 -9.378823 -0.158874 -0.543280 0.824382
-33.330208 6.372650 -10.364877 0.297014 0.927764 0.225915
-35.901302 5.650691 -8.294214 -0.956774 0.290658 0.010104
-32.166702 3.447455 -7.021717 -0.217087 0.248647 -0.943953
-24.332306 15.259218 -6.054605 0.947995 -0.302316 -0.099548
-2.785938 20.972252 7.485312 -0.017398 0.019299 0.999662
-37.289101 5.026596 -10.255040 0.557840 -0.046676 0.828635
-7.230442 31.201694 -6.609587 -0.000248 -0.000682 -1.000000
-21.908823 20.533373 1.173732 0.955002 0.296595 0.001462
-14.998149 10.129271 -2.878207 -0.296921 0.954902 0.000173
-16.325708 22.548735 -7.185034 0.000125 -0.001113 -0.999999
-0.873781 15.762718 10.897491 0.013419 0.009120 -0.999868
-8.642715 26.707891 -10.245411 -0.148949 -0.925327 0.348689
-20.628761 17.886024 -6.953092 0.953674 0.300228 0.019205
-10.726923 27.008127 -6.648849 0.000116 -0.000175 -1.000000
-33.616974 5.975637 -7.485810 0.820127 -0.148196 -0.552657
-31.764530 7.130825 -6.790712 -0.212127 -0.084993 -0.973539
-33.134777 5.408856 -7.287890 0.110351 0.045920 -0.992831
-6.332806 13.529247 -5.430124 -0.299697 0.954018 0.005589
29.446194 -25.310577 -7.461611 -0.310694 0.516952 -0.797640
-11.246033 13.308335 -6.526798 0.179385 -0.742238 -0.645681
-5.016755 13.987737 9.030668 -0.275142 0.961303 -0.013944
-4.506380 7.488817 -5.974361 0.925249 -0.379301 0.006746
-27.097021 8.497654 -9.374736 0.102842 -0.420741 0.901333
-31.771675 3.559966 -9.765594 -0.266201 0.084536 0.960204
-14.437577 12.739943 -1.212265 0.285289 -0.958441 -0.000991
-25.458647 7.632955 -9.349480 -0.114707 0.393653 0.912074
-31.978859 2.530908 -8.767797 -0.097387 0.995206 0.008990
-30.171577 2.505718 -9.812546 0.093757 0.848431 0.520936
-32.203796 3.068025 -7.346146 -0.122479 0.990382 -0.064359
-9.831111 12.377086 -6.621783 -0.299889 0.953940 0.008052
23.648220 -24.618200 -9.110246 -0.000909 0.003117 0.999995
-3.128075 29.886642 -9.590707 -0.003917 -0.005927 0.999975
0.512516 26.037024 7.422014 0.005287 0.005378 0.999972
-11.554628 12.101032 -0.308957 -0.296984 0.954879 -0.002447
31.942282 -21.722570 -10.810401 0.621025 0.489362 0.612252
-3.796962 7.089472 -5.288392 -0.933583 0.358356 0.002051
-16.389084 -1.707850 -7.852265 0.339439 0.639261 -0.690019
-22.634918 18.527620 -8.839869 -0.256510 -0.572739 0.778571
-29.273262 2.695964 -7.877616 0.180663 0.942245 -0.282019
-17.726648 13.308200 -9.512155 -0.334146 -0.120339 0.934808
-9.850111 12.765558 -2.642380 -0.254577 0.964884 -0.064728
-8.183569 14.849691 1.828284 0.436863 -0.899518 0.004279
-7.766692 13.175406 1.734045 -0.490711 0.871306 0.005395
-28.432312 2.616238 -8.120259 0.282420 0.959230 0.010805
-28.503296 3.049245 -7.267978 -0.050854 -0.094109 -0.994262
-3.399398 10.693667 -6.781596 0.799897 -0.333325 -0.499058
-27.760731 20.724209 -7.714677 0.068159 -0.701045 -0.709852
8.467641 -0.777888 -7.454949 0.015166 0.000102 -0.999885
31.988697 -24.141724 -8.835238 -0.403158 0.915129 0.001536
-17.061260 -1.713247 -7.395769 0.222143 0.749629 -0.623465
-10.395779 25.044607 -7.718739 -0.986688 0.162126 0.012713
22.405611 -23.872776 -9.265976 -0.000706 0.010631 0.999943
-22.397743 13.129507 -8.330695 0.429469 0.620199 -0.656438
4.774918 11.312842 -5.300964 -0.732092 -0.677323 0.072632
8.841054 7.704882 -4.925657 -0.719959 -0.694016 -0.000159
-30.429258 19.662991 -8.647351 0.716288 -0.697787 0.004939
-30.872730 20.070442 -9.584662 0.769676 -0.638377 -0.008571
