ply
format ascii 1.0
element vertex 1574
property float x
property float y
property float z
end_header
-8.388761 9.756667 -17.419216
-2.033713 -11.256587 3.823186
-4.136970 3.828462 -15.136659
-2.626726 -23.855471 -9.763939
-4.616731 18.103344 -11.373283
4.273370 -12.856272 -1.262674
-2.831170 7.957294 -16.080423
-3.244080 7.921376 -16.002779
-8.298040 11.419356 -17.054441
-4.217187 19.679113 -13.592829
-1.076700 2.472026 -4.199809
-18.714260 -6.658258 -6.210973
-1.278107 5.736731 -4.036356
8.721076 -0.468489 8.813107
-22.517633 23.844378 6.811661
-26.568094 -11.661335 -1.062483
3.531402 12.868078 20.581175
1.427074 -10.783175 -4.022398
3.056423 -10.189956 -4.873207
1.273165 -10.022788 -4.902376
2.825314 12.992195 20.575947
20.638004 3.904392 -4.070844
3.073064 -11.122162 -1.915165
-8.039239 -17.811575 -2.877901
-18.578104 16.868204 3.521846
-26.058500 23.526777 4.269466
-21.782183 22.974262 0.897009
8.100412 -12.771771 -1.055241
24.273577 -25.775871 -4.911432
-22.569611 17.434998 -1.616590
-22.354139 11.735072 5.187418
2.788733 -13.391299 2.298712
-6.775532 23.818537 -12.221399
-18.879093 19.732628 4.575321
-5.703750 22.875483 -7.696999
9.433030 -10.729582 10.515922
26.874176 -12.880191 -17.325108
-2.923337 -20.077999 -13.386068
14.075167 -12.373028 -4.291157
14.879709 -12.476904 -4.663392
-2.071352 -5.844698 0.032993
-2.713084 -6.690824 1.343682
5.391356 -22.648556 5.512025
14.094103 -26.191799 1.311725
-2.657104 -5.756285 -1.183365
-5.272138 4.096111 -16.045038
23.253069 -16.459084 -9.425249
-17.236259 -24.217224 -10.437797
-5.345290 -20.678368 -8.332655
-0.835515 13.413380 18.436646
-17.868811 -24.248581 -9.069281
-25.247377 -23.732967 -2.358081
-21.814726 22.988306 5.418035
-21.307278 -5.808458 -8.103953
-29.472977 -12.447702 -4.733898
0.205743 -10.880725 -1.362509
22.147030 -20.133806 -9.219666
-20.561735 -19.929310 -3.603581
34.505093 13.892250 -10.699209
-21.122162 -17.864153 -6.832423
-23.160416 -19.115213 -3.910857
11.777789 -11.884043 5.542380
-29.432858 -11.885709 -4.241803
10.326895 11.519383 10.887986
-6.354353 -26.935963 3.407120
-5.974058 1.128009 -15.041715
-16.264500 -22.456987 -15.008990
7.411950 -26.338104 -0.966896
-14.710639 -21.198601 -7.351101
-7.257166 -12.942431 -7.223766
-23.510313 3.412357 -6.117445
-31.783398 -4.432403 -6.748209
-30.560371 -11.073609 -3.009291
-19.259968 -20.847462 -3.934400
-26.513725 9.054999 -2.845865
-21.094360 -17.228989 -3.137706
-18.598427 -7.083908 -10.094476
-21.224520 -25.730387 5.534348
-27.803217 -13.210251 -5.996910
0.731963 8.118032 -6.921511
-21.639299 -17.251059 -4.184070
-26.523174 1.244673 7.987830
19.108702 3.380913 -9.011041
-21.416927 -17.317179 -4.467909
19.629099 -26.358231 -0.749689
-19.811495 -17.172756 -2.326761
-20.240816 -25.003702 4.344360
-18.479361 -8.827488 -9.679405
-0.961052 9.733558 -9.537880
-0.817127 9.385614 -9.907479
21.074911 -0.842553 -10.246140
-19.253305 -17.218977 -2.187796
-18.649178 -8.933048 -10.496097
20.160942 -4.438430 -15.886041
-19.159044 -17.456156 -1.770179
-22.386736 -20.140902 -2.211571
-23.729538 -16.914045 -6.609969
-0.090967 9.994037 -8.563519
-19.804144 -9.134055 -10.521225
-25.424120 9.215037 -1.343254
-26.209356 -19.411705 -5.970926
-15.331228 -13.001159 -2.986542
-11.088150 3.250636 -5.406657
-19.761900 -6.436179 -6.635670
-35.018238 -2.206344 6.177067
-11.591159 -25.340361 6.447870
-26.571533 -24.377768 2.465578
-35.720039 -5.006874 6.370869
-15.358017 -25.583338 6.918923
22.170773 -22.802467 3.541621
-13.412120 -19.232143 -2.965301
-10.238802 25.015541 -13.021156
-0.247047 17.618355 19.400059
-32.149910 -7.658292 -5.468426
6.782494 11.921749 17.952427
34.473557 16.621481 -15.805025
18.172907 2.041628 -1.355219
26.159275 -17.371161 -6.877622
-23.476959 -23.377806 -2.262050
-32.916615 -8.577819 -5.092950
24.678036 -13.809711 -10.421884
35.228043 12.524351 -11.863796
0.736812 -4.193346 6.681196
22.592203 6.070061 -15.543481
-24.688267 10.360335 6.748663
-19.706982 -0.316676 -11.023991
-5.669416 -14.291522 -2.129249
-23.608862 4.002856 -3.136735
24.480341 3.489985 -18.672195
-23.964918 6.581454 -1.466920
31.023066 0.457430 -17.800755
31.757587 -0.053973 -16.912437
6.222767 -24.827599 -9.544724
16.247200 3.282419 4.932704
-5.550185 -14.862927 -2.931736
2.333399 3.371049 -8.793843
30.011915 -8.646487 -1.690453
27.922859 -10.099503 -2.235205
30.026669 6.479592 -17.544884
26.230793 9.275040 -15.709288
-27.128204 8.482141 -4.525347
34.421909 4.420722 -13.876287
27.918812 7.742661 -17.520792
27.546404 12.590709 -13.721401
27.765692 9.165222 -15.866490
32.819462 5.647630 -15.763057
31.130444 10.978181 -20.448914
11.749799 11.728420 8.244122
-21.312824 17.365643 1.121199
-18.814093 2.576394 -13.817362
31.341978 14.686754 -19.452555
35.723255 8.193246 -17.043638
-30.197147 6.457837 -6.767832
-35.624870 -4.634947 8.327389
-19.076548 -25.313591 4.310299
-12.704153 -25.325340 -2.284314
-29.705431 -11.358682 -4.156301
-35.244087 -9.716888 4.205853
16.303600 9.721474 5.485012
-16.608728 -19.557333 -1.559450
-18.349134 -19.354042 -0.647913
-8.456413 -7.064007 -11.756007
17.885567 7.812453 0.201353
-22.989473 16.326530 0.561388
-34.918713 -6.897967 1.994307
-32.462585 7.049766 0.959730
-3.701125 -23.096012 0.955117
-7.811763 14.643039 -15.236956
0.488917 -26.110981 2.007932
6.236165 -19.902431 1.653158
-29.341349 17.740356 0.844706
17.002739 -2.642441 4.173400
17.222414 -2.736334 4.116855
6.768094 -13.357627 0.362872
-14.572557 -4.607326 -13.199295
-14.697004 -6.193399 -13.338716
-33.408100 0.776542 5.791989
29.904533 13.335662 -11.617089
-20.934462 -10.686862 -2.394388
-12.929820 2.213208 -17.593021
-7.799509 -23.911921 3.721669
-11.247724 0.493549 -17.012638
-19.224663 -10.130943 -3.085139
-17.117418 -9.823014 -1.113334
-1.956070 6.102761 -3.487243
11.779058 12.922547 7.172333
8.963490 12.432969 3.838101
25.643629 -25.470800 -6.949540
24.572891 -25.803963 -6.178651
-23.302843 9.586262 7.296795
22.614141 -20.352018 -8.505131
-13.443007 10.600174 -16.084312
-4.863624 21.718334 -13.050776
-8.133598 -11.760448 -0.145309
18.682333 -8.754774 -1.395375
5.781021 -20.193449 -0.448245
-3.371099 2.634328 -12.283617
-29.515053 16.200418 -0.144157
-0.286315 0.559854 -5.814664
-0.148764 -23.641464 -13.979442
-22.586996 13.081216 1.495731
-24.079834 -16.295998 -0.412910
19.435848 -1.088415 -14.167612
-11.803195 23.272966 -7.339837
-19.627754 19.900888 5.672207
-9.164379 27.190304 -10.082995
-9.996721 25.455854 -10.270274
11.523149 -12.070392 6.293749
4.198054 3.360341 -2.682171
-10.555088 25.084089 -10.656632
20.653643 -9.128730 -5.492381
-8.938748 -18.090374 -1.717623
4.214041 -18.682171 1.060107
14.999743 2.774059 5.872577
-9.109261 -9.178071 -10.831650
-34.213211 -9.436516 -0.048458
18.660723 -25.677731 -3.842607
-28.461699 20.364954 0.029317
3.355629 -12.793361 0.317709
25.088896 -21.238638 -11.785604
-25.771858 -17.125317 -4.982053
18.715406 1.902658 2.021646
-29.526453 -7.565379 8.172193
26.412458 8.258622 -17.779806
12.322115 11.829256 5.752332
-19.990961 -16.198185 1.250115
2.960394 -21.740623 -2.057160
-12.452320 -9.305655 -13.261705
-32.976967 -2.290311 0.856022
-33.989376 -0.039332 3.265147
-22.242689 17.042646 6.442041
6.840531 -12.800043 5.813987
-10.813356 17.699730 -5.601606
32.530655 9.847359 -10.661553
20.714384 -1.593852 -16.110777
12.225757 -2.718683 -7.213563
-6.679004 24.796347 -11.252094
-28.613689 4.489938 7.913538
-24.764498 9.452034 6.899942
-25.861860 8.005694 7.867208
-28.696424 -10.879031 7.746810
-22.847101 -20.420189 -7.105165
-28.592733 10.221045 6.447917
28.494726 -6.600889 -19.064404
26.408468 -8.445420 -2.323911
7.957637 -24.984949 -3.855138
10.981215 11.632484 4.921037
0.027194 0.203181 -4.098684
-0.772925 -11.666620 7.296952
26.588882 -8.890812 -1.342815
9.899904 -26.481987 -1.615973
-13.049724 14.563244 -9.193192
5.877216 -3.626718 -7.468653
-9.204581 16.255838 -5.601862
35.000626 2.595340 -14.368961
-3.077639 -10.664812 -6.975990
-27.102394 9.388977 -2.915545
-20.886530 24.990030 8.907868
7.367739 -25.552683 -3.205405
-26.135056 7.584412 -4.472739
-27.967258 11.308871 -2.409530
-12.966598 8.128406 -10.279648
-32.652565 8.698744 -1.061530
-1.654134 -22.575377 -0.349826
11.490157 -21.200605 -15.480343
-26.736441 -11.845180 3.117419
-13.930100 -17.171707 -4.874047
28.599760 -4.141294 -4.630481
-24.720861 -23.418177 -0.788712
20.220701 -1.392798 -11.595114
26.614149 -0.606944 -4.833624
-14.833282 -2.799981 -7.162189
-4.445239 0.028684 -5.297933
19.916780 -26.128658 -2.611450
-12.943229 -14.159204 -2.070568
16.191023 1.164796 -1.154166
-21.458624 18.362438 5.848714
-9.305338 21.244177 -5.910259
-11.475467 19.233303 -5.654247
8.538489 -12.271322 6.002941
10.411220 0.432401 -5.593150
14.074803 -11.789933 5.831351
2.776436 -9.968362 9.269475
14.409464 -11.979388 4.909461
1.771676 -11.034395 9.510703
0.330931 12.563776 18.138567
0.844788 -23.194227 -14.157215
-0.616436 12.176124 17.332993
-16.093870 -13.549403 -2.147570
35.353851 -5.642022 -11.803742
-18.979542 -14.608253 1.092125
30.427105 -12.663735 -15.404843
1.290907 5.723616 -6.149350
-11.857388 -21.679958 -5.900547
-31.316673 -10.656065 2.064774
-15.643726 -20.944590 -3.655236
24.055492 -24.870169 -7.306686
6.884329 -13.946993 -0.807245
10.923120 -14.332511 -3.923273
-13.771675 19.488163 -14.808626
-32.146091 20.416758 4.668365
27.297194 -2.267043 -5.468327
8.239864 -12.364758 0.157514
-19.056135 18.229393 4.175842
16.563999 5.484322 -0.429859
-20.256208 -25.948647 -0.884515
-31.552902 -10.771397 -3.164021
-31.369495 -11.150122 -3.943411
-18.119408 3.577765 -10.553033
-7.556546 -16.588091 -0.711662
-34.680080 -8.296619 2.324327
-15.144611 -25.748028 -2.484215
-17.934010 -25.826719 1.395178
-5.892491 8.065709 -7.866095
-36.520790 -7.916585 2.970775
-15.392929 -24.604568 1.830369
-1.930440 3.496411 -6.182958
-14.945540 -26.396210 1.858892
-13.684665 -25.529320 -0.523975
-6.640910 22.495523 -7.187452
-3.150735 4.116065 -7.406037
-0.591347 11.334732 0.568635
1.467678 17.625618 7.766503
35.181198 -2.809022 -12.236819
30.918978 -10.736101 -18.569744
2.766768 -23.085186 7.008756
3.431918 -24.245354 -8.626315
-29.605816 9.276978 7.341141
32.438869 -10.105037 -17.717512
-8.370378 -22.186861 -4.649266
-14.895859 -14.009192 -1.446054
-23.234911 -0.539970 -7.832990
-25.845121 8.088615 -3.460213
13.052248 11.471405 8.461863
25.509325 8.014370 -16.691654
-13.241906 14.983098 -9.250527
-20.444998 -14.395600 0.768177
15.227573 -4.076024 5.417078
-6.946243 18.488222 -5.988132
-8.356698 -11.987304 -7.477888
-21.643223 2.302641 -7.532490
-6.434112 9.113932 -8.481401
8.329123 -15.538956 2.597879
10.291687 -7.194632 -8.962117
23.670534 7.877771 -11.247752
-18.059681 4.795551 -8.782696
34.844528 3.010321 -10.455333
-28.249010 -5.533762 -7.371757
-24.024822 14.259665 0.131555
3.657504 -13.160852 0.507967
-20.472570 20.157124 3.569489
-9.694137 -23.456766 -13.624398
13.618323 -21.437866 -8.660795
15.784051 -4.316044 -9.624365
-25.537848 -24.336084 2.777826
-32.690956 -4.047909 6.754998
24.749334 0.389231 -5.606066
-36.601707 -8.397284 7.440536
-11.718567 -23.336163 -0.565679
-25.995235 -15.073367 -5.892252
12.866101 -11.242950 3.570338
-25.339867 -15.643747 -5.879457
36.256268 9.536919 -14.124173
-14.721881 -17.002291 -4.963785
-4.466625 -23.688314 -11.796316
-27.833403 -12.311195 1.962010
29.106688 3.330563 -5.266112
35.382034 2.694084 -11.157965
-0.284172 -25.583179 1.699806
7.199731 -18.231857 1.563214
-22.610186 -25.659063 2.917625
20.551439 -12.181496 -7.183833
21.130178 -10.833010 -6.998086
-21.225811 -25.840139 2.072927
10.644924 -2.104539 -7.207907
-6.144110 -10.444643 -9.580468
16.467876 -22.617077 0.073562
-11.581234 25.464415 -11.299836
17.220072 -2.475008 -11.048345
-23.843689 -25.370646 1.657576
21.242132 4.242374 -2.584943
14.461386 -2.056841 -6.250922
14.428624 -10.959169 6.898542
-26.238605 19.963678 6.695602
4.365726 -22.253136 0.726837
27.633665 -22.825991 -8.127705
-19.875338 -10.702811 -7.904187
-30.373920 14.331245 3.998213
18.257036 2.057151 -4.538025
-13.200641 -23.195395 -1.925596
-20.094875 -9.067217 -7.614471
-19.347130 -15.625766 -1.646947
-10.472707 -15.108136 -2.372577
-24.541691 -9.713981 6.958243
33.520950 -4.524535 -14.886920
-9.223443 -9.394088 -9.960214
-27.025082 -9.641868 8.981729
33.862499 -0.732049 -13.371690
20.267904 -2.642544 -15.527309
-8.425328 -17.884399 -1.791364
1.883742 -12.394620 6.682132
2.330546 -0.244384 -4.096816
8.708615 -2.346003 -7.292119
4.061397 3.074615 -5.833232
-7.169638 15.742516 -7.043018
-9.381119 14.263359 -8.214096
19.247156 -2.672712 -13.186381
-31.554279 12.131289 1.594002
0.626042 -11.087542 -3.981568
-9.660046 16.432724 -16.268507
-22.150581 5.716898 7.493851
-0.175759 -9.577189 -5.459277
19.988495 -8.545782 -4.608313
10.990805 -0.176981 -6.038939
-19.953476 8.319022 1.519631
6.674176 -9.671830 8.306782
-18.608627 -23.303370 -11.941490
-25.034887 21.178268 -2.906581
-0.246298 -20.961424 -6.908006
4.647551 9.849306 15.114659
2.991678 -25.577858 8.094652
-28.861404 17.110596 6.318930
1.409692 -25.381960 9.451326
32.686844 16.405834 -12.339764
-25.412430 22.414057 -0.702114
-27.729876 -12.511929 -6.298609
8.735479 11.274333 12.484469
-2.871574 13.797650 13.489038
-5.258127 2.806450 -15.185844
34.846027 -7.058563 -12.324721
-3.245416 13.159890 14.907086
37.621796 12.191591 -15.726044
0.673760 14.810735 18.583868
-27.183998 -13.171818 -6.237042
37.515442 10.829995 -17.035202
37.238987 11.418864 -16.019629
4.161942 11.442890 17.067322
24.793018 -3.724541 -19.194170
23.360378 -4.699848 -19.152599
35.108059 10.711117 -19.540829
2.137118 14.521182 9.188722
14.562708 -2.179538 -7.254344
-30.286928 -11.748869 -0.512528
14.553959 -1.944304 6.265875
16.375513 -0.044421 4.730376
-33.828709 -11.277818 -0.782161
-33.224045 -8.486673 -4.208117
-32.051174 -8.618427 -4.388290
-31.611792 -11.626922 -2.880837
-17.974173 -2.854954 -8.065500
2.902434 6.337729 -5.605466
-7.607089 -0.165842 -4.225008
-31.454107 -10.262959 -4.434050
-21.260263 1.722138 5.710726
-16.698912 -25.135569 -2.501872
-19.477076 -25.299549 0.704904
23.139130 -25.260372 5.276600
1.455656 -10.584353 -4.406352
0.675048 -10.546040 -2.735833
22.353628 1.432241 -3.544954
-28.965321 -14.192735 -2.808465
-28.723579 -10.028202 -7.211555
-33.883778 -9.268245 -3.299843
-34.297729 -10.494190 -1.918961
-6.864062 9.679415 -17.827847
4.853046 12.309170 18.939568
2.733526 -11.761945 -3.892798
-10.233259 5.258375 -18.253328
2.820034 -11.000899 -3.011518
1.219890 13.812685 19.651745
5.300505 -10.621265 -3.488183
6.343110 -11.264986 -3.911802
-34.831085 -9.188964 1.147353
-15.663095 -25.440395 -3.533903
-20.364254 -26.136805 1.857000
-18.914133 -2.938815 -7.293047
-13.060900 -13.129642 -3.634173
-13.107053 1.365417 -7.967617
-10.701164 -25.636221 -5.913661
18.404390 -3.303108 -13.837332
13.204878 -24.195345 3.669189
-14.230707 -25.593649 -1.092685
-19.086964 -26.018950 2.255564
16.044970 9.088143 2.058414
-34.878521 -9.184415 2.397350
-24.458714 -5.049962 7.363569
-13.195378 10.572198 -13.033098
-5.249002 -26.445389 4.782978
-30.051661 11.902792 4.374685
-14.169436 -24.182402 -10.226630
24.847281 -27.243521 4.780872
25.290781 -2.667723 -19.256920
23.180542 3.863447 -4.376386
8.428230 -22.293858 -5.241645
14.753961 -20.564430 -5.016684
7.651423 -7.944568 -8.969098
-10.083243 -19.870062 -11.544107
-11.250371 -23.587891 -9.749847
33.584572 2.044026 -14.330910
2.471235 8.621394 8.711437
-4.448345 20.128019 -8.550965
34.009819 7.535918 -13.526730
-2.406728 -4.089377 -5.069934
23.184639 -10.650304 -5.580906
7.971408 -4.372159 10.378064
24.794741 8.084638 -11.880441
22.372467 1.239222 -3.558951
17.201778 -8.873590 -11.908104
-23.883619 14.794538 6.938371
-22.306961 11.039303 1.892215
2.641474 10.922282 10.026855
-15.891292 4.515525 -11.048307
-4.292766 -24.908123 -7.499053
19.007374 -22.294706 -2.393147
19.193396 -26.599245 2.618563
-14.964233 4.743216 -10.267213
-4.597178 0.673481 -6.653643
-9.356773 5.279141 -7.921909
-23.604433 6.183836 7.924931
-23.554399 -13.512086 -3.821206
34.322155 5.440690 -14.310961
-23.601564 12.625821 0.294396
26.087368 5.723340 -9.911986
27.972574 -6.334897 -4.596707
-13.194032 10.184987 -12.013593
30.748102 -12.718273 -7.568619
-25.932789 14.392714 -0.285251
-14.509268 8.894663 -17.035650
-29.230459 11.521208 5.818759
-11.689425 11.283732 -12.344545
-18.893179 -11.188955 -9.693707
-20.940790 -19.193697 -5.292989
-19.739513 -19.590649 -4.197978
-8.253896 10.573672 -17.066549
22.414146 -11.307543 -17.833645
11.068944 -16.717802 -7.938876
-14.608203 -12.898516 -2.496182
25.616310 -23.053507 -2.567083
25.301672 -17.920645 -7.895379
26.357746 -12.594428 -11.165316
-12.515250 14.160275 -11.963896
-11.244402 -12.799775 -5.236281
-29.836048 13.919062 5.516675
-1.528508 1.990589 2.031898
-9.923112 23.656233 -14.557395
-11.365497 11.311609 -16.719885
31.264942 -10.680196 -17.079735
-0.995575 2.954462 -9.345250
31.909498 -10.466246 -16.828169
6.837103 -6.568632 10.323161
-0.384037 -0.596934 4.493896
-0.746997 -1.262005 4.666420
1.825076 2.780608 -8.605698
22.525146 -24.182806 -11.233242
-0.126578 2.251419 -9.245673
-6.936503 10.796699 -9.212764
10.407641 -7.402335 7.165563
0.708712 5.750608 -11.128407
26.246712 3.927249 -4.529502
28.888145 -8.180503 -1.530645
28.149197 -8.224777 -0.906077
-1.869616 10.749029 -14.111320
-1.251896 10.677653 -13.420941
29.381401 -10.985814 -4.308054
29.537481 -11.485567 -4.341216
-4.122767 10.756526 -15.774362
-4.012053 12.351336 -14.259423
-2.030896 9.868099 -15.328123
-3.993999 3.066147 -7.366893
-6.717112 13.885596 -15.806252
19.344898 5.837762 4.319652
-3.657444 13.064488 -13.483339
-5.960954 6.291305 -6.768498
32.751518 -2.378076 -6.289343
-0.098822 9.808128 13.841846
-1.411254 4.973978 -3.519948
17.750500 -19.742142 -7.225610
-1.336497 19.646557 15.853358
2.971367 -25.716776 -1.007532
0.340621 5.917132 -5.067041
24.596518 -13.933107 -10.240680
14.482342 -20.667049 -6.984885
-12.950696 20.136911 -6.760766
20.004311 -8.170449 -1.452694
-7.885975 13.640878 -8.123590
-21.473494 20.743578 -0.160979
10.121147 -12.647257 -0.869909
23.594654 -13.063004 -11.837083
24.161804 -19.446712 -4.427503
-22.660358 -21.523457 -1.520288
-18.113230 3.567953 2.129726
5.330979 19.375307 10.149444
5.929301 5.921243 -2.577512
20.495981 2.522912 -1.568610
18.852514 -6.262297 3.956771
8.896627 16.507399 13.490902
18.995497 -2.824365 1.720126
0.386610 11.757109 0.902370
37.618092 14.192373 -14.033834
-27.836205 -10.316673 -6.069942
-22.209654 -17.858910 -3.302812
33.708771 14.026123 -11.277893
33.837185 -5.469707 -14.732446
8.053813 13.872641 14.049433
-24.848099 -16.505310 -2.407226
-0.959699 8.067759 -2.993247
-8.747736 27.136871 -9.548179
-15.625607 -11.586262 -10.512590
-21.920195 -17.031860 0.700084
-15.538105 -16.832924 -5.050013
-12.735033 -20.844398 -11.252923
17.059769 -7.143378 -12.972475
-0.962364 -19.858841 -9.742313
-3.603417 -23.805868 -9.212013
-12.048348 -21.596361 -7.706028
-3.083077 -6.065014 -9.668417
-2.195294 6.733006 -7.595883
18.174143 -23.485399 4.593943
-3.202366 8.618742 -7.441386
-25.231943 -14.388267 -6.493702
-1.082577 -6.505696 -6.795516
-24.796013 -14.594160 -7.115019
-22.518082 -16.354313 -6.180264
-18.990572 -8.782863 -8.763673
-19.296419 -15.947274 -1.451308
-22.718849 -12.881325 -1.460516
-21.749641 -12.936101 -1.621945
-6.539472 2.296018 -4.994117
-25.193794 -12.458435 -5.255098
-22.395332 -15.200363 -5.450625
-7.952764 4.079195 -5.713744
29.019777 1.000500 -18.311136
21.943102 -26.573719 2.604730
-18.983347 -18.607082 0.809593
-10.891047 23.449286 -14.595004
-20.575024 21.574373 8.568424
-26.879526 22.748138 -1.181451
-9.315887 -22.744890 -3.431191
5.590708 13.962908 7.457304
-6.853620 -22.064653 -0.732041
-7.147702 -25.920759 3.202201
19.698996 -12.888429 -10.993773
-29.662088 11.441720 -4.262687
21.939810 -14.536179 -10.941903
20.101490 -13.044715 -10.589787
0.479470 -27.069891 4.244853
-2.620381 -24.121313 -11.350549
20.816904 -17.927357 -5.786349
7.022940 -20.607216 -15.465590
-5.852206 -13.206122 -4.539577
-14.732425 -22.207096 -5.356872
-32.719120 -5.046873 -5.684520
-5.584984 -12.721894 -5.549396
25.773331 -26.352894 -4.875124
-11.806919 -21.008383 -8.081867
1.376837 3.415882 -9.377151
-29.975092 -11.802903 -1.955267
1.608828 -23.169533 1.870111
-20.961681 -19.897982 -2.174793
4.652935 -24.209404 -12.243423
-9.205148 7.242734 -8.016802
36.782467 15.211485 -13.370977
-9.617099 -8.662829 -11.290115
13.704988 6.009647 -0.151062
-28.977633 -8.829145 8.271184
37.058418 15.340685 -16.120558
25.974615 -11.890580 -6.591950
20.718857 -19.155926 -5.141389
21.675846 -15.967342 -4.938259
-22.967808 1.575748 -6.837117
-7.572551 -12.676804 -6.921187
35.910069 15.357134 -17.507317
24.715611 -15.199085 -4.911004
29.395596 1.891622 -19.135586
19.966433 -13.979161 -10.857155
32.403870 5.860217 -16.140032
-0.923111 -24.518324 -7.210207
10.840151 -2.371492 -7.987718
29.535210 12.912374 -19.294319
25.210295 -16.954819 -8.025047
24.509348 -19.498375 -5.353315
-1.141897 -19.534325 -12.749239
19.145288 -11.290704 -8.075963
29.462309 14.625329 -17.792070
0.590789 6.770684 -5.058740
27.382845 -22.379026 -6.539273
-0.423871 6.692190 -4.994374
-10.015120 -6.581037 -1.403427
14.100147 -6.271472 -10.726488
-8.564388 -25.440073 -1.723678
9.397764 -12.630981 -7.092078
-25.666185 1.331081 7.260832
-10.721917 -4.191613 -15.138315
-14.181656 -1.759938 -15.017469
20.199751 -27.037254 -1.469357
18.542240 -4.811893 -15.222862
-27.642727 2.082038 9.103005
18.198633 5.375891 5.138103
20.650711 -1.917132 -6.042741
-31.675406 21.716875 5.499381
-32.044182 21.732746 4.453698
-11.756504 -26.071119 3.619016
-29.208721 0.208556 8.601264
11.315022 2.692062 -4.336544
-14.000514 -27.033667 4.805515
-8.005894 -24.521891 -6.785748
-32.430733 0.676540 7.008850
-8.208150 -0.476042 -15.241135
-12.316806 -27.219963 7.320976
-0.899066 -25.989845 -1.135206
-33.748825 -2.765099 0.458624
-33.652760 -2.772845 -1.952267
-15.059175 -19.986065 -13.914758
-28.626213 18.595806 -0.835124
-28.028296 12.803421 5.054044
4.775750 -19.712776 3.800035
17.172562 -23.840250 -14.278501
-6.053621 -14.312211 -0.256191
22.356960 -25.203497 -7.401733
17.578014 -9.320611 -0.524263
17.867376 -20.283363 -16.523149
-14.580615 -22.943426 -14.729177
18.959049 -20.678085 -14.961490
-28.020672 8.908585 7.770389
-6.850073 -14.676689 0.285629
28.841421 -3.380889 -4.772990
2.219504 10.120040 -0.851677
9.792068 -12.462478 2.668100
15.827913 -21.951626 -3.240014
-20.773279 0.490494 -10.981802
-9.773795 -9.625889 -11.703091
10.886127 -25.604784 -3.357618
12.022532 -25.849869 -2.790119
-22.143036 5.213032 -0.744067
-4.781484 -11.151710 -0.380183
-3.172246 -6.143898 -10.378489
-22.418846 14.578914 3.425615
4.868878 -26.264912 0.273645
0.972885 -26.614910 4.987874
17.120903 -9.264537 4.407559
7.578050 7.610959 -0.649016
18.158611 -2.411942 -1.809472
-19.229078 -21.081875 -5.263480
-31.056543 -11.733104 -1.434350
-18.178350 -24.799442 -0.573225
-25.864735 -15.510914 -7.492297
-3.689225 1.324799 -12.801518
-26.148268 -14.521048 -6.035674
8.586676 -14.348322 0.275154
25.116398 8.777437 -12.877490
33.324459 -2.189444 -11.124480
29.902189 -24.179546 -4.736111
20.252411 -25.731661 -1.849813
-20.758007 -25.158634 4.720651
-21.125648 -17.322618 -4.097018
-19.717693 -19.490353 -4.457607
-20.963770 -25.526379 4.381958
0.795773 -10.188551 -6.696383
-17.927959 -8.075109 -9.986091
19.665417 -4.596396 -15.662233
-19.851337 -16.452833 -2.147597
-23.709581 -0.127880 -8.470084
23.932520 -22.595932 -0.210483
23.238617 -3.633731 -19.096395
15.613866 1.851987 -0.663572
23.856926 -26.477560 3.820099
-6.574475 22.700420 -15.078989
24.476105 -26.992092 2.668581
14.805342 2.162399 -0.964700
-20.484350 -7.607378 -7.763232
-18.518036 -10.170114 -7.845767
11.018229 -2.492076 7.358071
-0.426610 -28.307821 8.129694
-22.792192 13.105135 2.202956
6.716578 -12.868139 5.314873
-22.232332 15.896895 5.700135
37.010395 13.118618 -13.072126
2.905629 4.201050 -3.190538
-11.011496 -26.223467 -4.266662
-20.743437 20.482050 5.487260
7.949144 -26.745190 5.133817
-25.409050 24.496939 5.334190
-2.939020 -5.757038 -1.309525
-10.721111 23.854898 -8.206291
-34.725670 -8.488194 0.318673
18.400721 -25.085485 -3.707172
-3.730780 -3.606156 -2.621262
-0.364276 -1.522099 -0.330485
-0.044457 -7.478189 7.038548
1.565330 8.151573 -8.446733
30.383026 2.554220 -19.220951
21.452988 -26.440151 1.541633
21.907503 1.208069 -11.438095
-4.100389 8.664795 -15.509659
-1.688004 7.026318 -13.444000
6.544372 -4.526566 -9.051781
-12.881097 16.753824 -15.245120
7.292795 -23.355856 4.101348
-31.493715 11.876601 -0.833938
7.677549 12.998018 16.100977
7.743990 3.014995 -4.036844
7.128278 -10.166851 9.357894
6.873782 -9.827234 9.520699
-20.517735 -7.996793 -7.558070
-26.152962 -16.214594 -5.999574
-12.157107 -2.704299 -5.443114
-8.796534 -20.757645 -16.452740
-33.300793 3.853513 0.510834
-26.205519 -16.163565 -5.539886
-20.734335 -15.268063 -2.604908
15.993014 -27.858101 7.470443
-22.721031 -11.014524 -2.924251
-19.755705 -9.943652 -5.895540
-13.750974 -2.603720 -5.771334
-5.689092 3.531023 -6.047851
-5.799772 3.316594 -5.854695
-24.373850 -14.420644 -6.033926
-8.906508 -23.433760 -14.590446
-23.171854 0.314371 6.901940
-18.771379 -11.673926 -8.070665
-13.258587 -3.269198 -5.755550
-7.857274 -22.919518 0.004781
-14.887904 -10.868825 -12.390994
1.279736 -3.433545 -5.461377
-29.383280 -11.266203 2.754126
-15.226411 -18.459202 -3.655455
-5.073450 -4.457903 -12.611333
20.909956 -27.036194 2.444507
-9.133833 -25.777725 -3.373329
19.976471 3.731588 -10.320832
19.488068 -26.393557 2.505848
-27.130127 -2.445508 7.809604
-14.296763 21.651897 -10.104949
33.918221 10.771073 -9.611670
-32.181702 6.200376 -0.277853
-13.667077 18.799191 -7.636240
3.686421 -4.608348 6.380282
-3.343562 -26.845810 3.307621
-3.353379 -22.193806 -0.324850
-8.428976 24.080605 -8.070647
-25.283409 24.998884 7.299339
-27.218792 -8.379457 -8.817538
25.091652 -24.047590 -10.963179
24.520437 1.127497 -18.311592
-3.558025 -22.571175 -0.788752
-0.270050 -25.991909 -0.951436
27.850637 8.344839 -11.706767
4.552498 10.859884 0.783678
31.766062 1.839563 -17.696692
35.702251 -10.411386 -7.659648
2.031283 -8.845238 -6.520531
-23.760597 19.810936 6.786222
-29.614405 12.840467 3.400648
-2.908232 1.528257 -0.633813
-13.584098 -20.915361 -12.345792
7.978085 -23.228062 -3.707831
-29.310358 3.101844 -6.542528
-19.576397 -9.603325 -9.891106
-20.180649 -16.912628 -2.415045
-20.099884 -9.764019 -9.405396
20.368574 -17.682007 -6.337053
4.291183 -0.939322 -6.384808
-22.963892 14.467939 6.200078
-27.671495 -26.195900 1.630970
-13.797088 -25.029654 4.793023
-30.441387 -10.537940 7.651402
16.390638 7.438766 6.051809
13.051819 12.772892 7.800832
-10.336905 15.148440 -7.577856
3.068502 -4.125748 -6.884997
20.042728 -11.548591 -8.356477
9.587659 -21.168325 -6.500798
3.573963 1.393842 -4.391397
31.000696 -4.928905 -3.780764
0.252190 -7.957385 -8.270468
-0.316122 -1.672259 -1.442917
-17.133638 -24.499485 -3.659338
-17.872425 2.827599 -8.144332
-14.846548 -1.123801 -8.311450
-24.085392 24.335173 8.143281
-16.366507 -3.366208 -7.947216
-22.344801 2.516559 7.401812
-11.857793 -4.745347 -15.012726
-14.511650 -1.665902 -14.293447
-14.267876 21.172825 -12.151994
-29.249702 20.966732 2.772173
31.388556 12.255317 -20.301558
32.267479 12.036222 -20.683689
-2.500367 -24.865749 8.487204
-9.194431 7.017330 -18.821110
-0.362542 -25.874018 4.006335
-25.270842 6.444679 -3.942601
-3.214708 -10.380216 -7.946439
-32.302029 6.658522 3.821129
-8.614430 -27.102852 7.121845
-10.287298 -26.964029 8.994492
-29.755495 12.768732 4.407142
7.758885 -14.761684 2.988300
4.714076 -18.523897 3.326203
-3.591136 -27.024317 2.432757
-31.380995 11.824694 3.337032
6.271922 -3.793087 -8.714277
-13.748339 17.036640 -8.038282
-24.819082 -11.201081 7.229820
19.359056 -16.321478 -8.936131
-12.568987 -24.083324 -8.305463
18.248901 -23.525749 -16.489973
18.703218 -19.797714 -13.043036
18.838924 -16.005199 -8.203362
-13.316748 18.331684 -8.170165
19.046198 -3.501724 4.194180
18.604130 -8.258288 -0.805421
18.687908 -16.534300 -8.979055
19.263090 -15.370987 -7.981815
12.280951 -15.109202 -2.969273
-20.842361 0.497339 3.434860
-9.748288 -4.870108 -2.804973
12.163081 -16.539059 -4.793345
-2.055706 -25.397800 -7.280811
18.521215 -11.095657 -14.775237
-34.686069 -4.050683 4.391726
-26.630283 -24.949644 1.436044
-16.189392 -25.118029 6.567083
16.011208 8.310302 8.059656
-24.396149 14.100080 5.409157
-2.351904 -5.958605 -8.457383
22.315260 -21.285650 -2.606612
-25.681831 16.605457 7.665754
20.164356 -12.835787 -9.380874
19.727444 -15.634636 -6.361304
-25.539801 -26.437090 2.435526
13.614923 -20.337948 -8.777585
-32.122818 -4.397720 7.151042
-8.335935 -4.706362 -1.571410
2.060038 8.647267 8.688706
-14.661880 0.301592 -15.681941
-18.510477 1.601071 2.632621
-15.094687 -24.773367 -4.252270
-21.028521 -24.471624 2.444468
-3.194784 -8.573666 0.376428
5.766684 2.641387 -3.657373
22.113514 -10.396721 -6.346986
21.473717 -10.229973 -6.910150
20.510988 3.286153 -11.463691
18.713320 4.091802 0.417638
16.333670 1.799393 2.950185
-20.329844 7.046608 -0.157250
18.804241 6.175108 -0.966865
14.101057 0.677187 -3.904500
-20.023140 22.728333 7.553782
-18.207235 -11.069064 -10.851998
-21.024611 24.034121 7.456866
-2.813978 -9.980556 2.924269
-2.077063 -3.906672 -3.577999
-2.314709 -6.787671 -2.008269
-2.457032 -9.195637 1.032774
-27.631134 -14.006410 -1.423444
-25.051491 -17.733238 -3.671952
-28.148783 -15.190686 -3.332749
31.377951 12.671147 -11.360462
22.796467 6.334743 -15.775208
-12.934170 -5.320626 -4.595291
28.641533 11.162348 -17.937086
14.957611 9.627849 2.063523
-36.361813 -8.016453 3.255015
13.387053 -23.814825 3.085584
-35.834850 -9.009659 2.008395
-13.159543 -25.844463 -1.104183
-14.946333 -24.965967 -2.446537
-21.146799 1.103158 -10.396691
-29.915796 12.053333 4.772932
8.692379 -27.520287 4.812054
2.306326 -23.024408 1.145833
8.134684 -5.518141 8.507266
-9.427192 3.226853 -17.546728
-10.855952 27.304052 -11.863547
25.966568 5.114247 -9.080140
25.788843 7.525039 -11.165488
-15.724508 -2.257274 -8.165707
20.315161 -15.621530 -11.363385
0.181443 20.545170 17.665575
-10.923326 11.685963 -17.184944
0.251641 -24.975220 5.122288
24.998672 -16.108568 -5.777961
-8.057694 6.309687 -18.577776
20.624863 -22.590593 -17.330107
-36.040062 -4.625125 6.624452
-4.352198 -25.015356 9.519817
4.090360 -16.235163 2.896303
35.224533 4.939303 -9.383559
12.046288 -14.628706 -7.374190
-2.444109 -1.495634 -10.063984
-3.701941 -2.456219 -10.483281
-24.308645 -2.826077 7.389620
12.383838 -14.769027 -8.616446
-13.843287 0.548943 -8.013927
2.339299 -14.517877 1.431870
3.998267 -12.116869 6.969141
11.737972 -26.508102 3.567782
-1.670947 -24.838501 5.120935
-27.425385 5.107132 8.084576
19.255539 -23.702379 -0.587112
-26.488411 6.694485 8.474276
20.899431 -20.162340 -9.663268
-15.020868 -15.304317 -6.501505
16.019405 -20.987869 -14.234782
-23.654381 -15.401199 0.908532
-25.511930 -13.586120 2.089655
-10.178530 -20.803558 -11.259636
-31.678600 12.046070 0.800883
-23.508448 -23.567400 -3.021595
4.093812 13.223763 4.586534
-12.376041 -11.563844 -3.404993
-13.494923 -10.946010 -2.527731
15.960679 -25.983671 8.186113
29.746191 14.376126 -17.564726
15.484396 11.588960 7.224970
-8.892430 20.694712 -16.302732
5.817412 1.090675 -5.167012
13.252911 -27.906919 7.192969
13.268467 -23.904131 -12.752171
-9.613725 16.487909 -6.814349
5.045246 -12.582372 6.569938
4.816623 -0.082528 -6.485274
-31.793980 11.529728 0.388205
-31.152853 6.070666 -3.397951
-0.770138 -25.419491 -4.606249
-33.026421 6.121250 -3.575807
19.587309 -4.107935 -15.859888
19.645105 -10.428399 -7.480552
-13.405458 10.707752 -14.984882
-31.926384 10.678047 3.745379
13.511689 3.367997 -0.641976
21.190687 -1.300000 -7.096417
-14.767281 -26.079191 5.847229
-13.027264 -24.952465 -0.165462
-2.627983 -8.538421 -5.165689
-17.333784 -10.596764 -9.324065
-17.052938 -10.028801 -10.995003
-11.232966 -27.022949 2.028112
-26.883232 -11.525353 -0.272059
-34.687153 -4.569715 6.311677
-17.515236 -19.298008 -2.025254
-17.535686 -24.763781 4.547118
-10.021423 -11.111884 -1.836343
-22.951374 -0.295238 -8.022264
-21.280308 -7.958590 7.779756
-5.034878 13.436060 -12.059002
9.133626 -26.318691 7.999345
13.536151 9.898312 2.057526
15.292457 -23.918226 3.269953
-5.907597 -24.691927 -7.144039
-27.042934 -3.119131 -6.249043
4.880711 -5.079326 -7.941850
8.798182 -12.947438 -4.300706
9.940712 -7.681537 -8.557351
5.698801 -27.285728 6.053133
-5.409254 16.045017 -9.707146
-11.072854 -26.949471 6.987926
-10.065691 -8.470484 -13.063395
16.160757 -8.001110 -13.669235
-10.392811 -27.141258 5.931034
34.948914 -3.716728 -11.885138
-21.708147 6.740405 7.351249
-9.745681 -3.333526 -5.119928
15.960724 -26.106367 4.208484
-12.624461 -2.850783 -6.529696
31.662395 -1.582029 -16.843466
37.750072 11.703036 -12.451128
-9.929267 14.133473 -9.690646
-0.265099 0.616834 -3.836490
-26.064508 13.945240 7.109059
0.517648 -10.822687 7.872937
-11.235334 13.549569 -9.543814
36.819016 12.710750 -12.836544
-21.168301 17.361448 0.490754
31.249884 -2.611181 -17.824368
32.053909 -1.850607 -17.062607
-3.371573 -3.292127 -3.591486
12.978504 -24.061525 0.991439
-21.348404 -21.192198 0.722980
-23.977766 15.387408 0.079456
-14.350689 -15.158210 -6.566736
30.294056 -13.832619 -11.385023
-23.438881 -15.101630 2.498267
-14.201068 -13.562501 -7.969769
-25.043669 -13.650045 2.581804
-6.570750 -4.058263 -1.417271
-20.498566 0.858840 3.554042
15.487816 -8.415766 -7.796053
-18.411480 3.346281 2.746744
17.160456 -8.025842 -5.696136
-18.483269 -0.968470 -0.900000
-21.216213 -11.352170 6.652309
-10.578852 -8.687716 -1.358962
1.249752 12.739368 6.789598
-10.199077 -11.935826 -3.232223
-10.889866 -6.980274 -0.995836
-17.852390 -0.357115 -1.011535
-11.084973 -10.012414 -3.320140
-8.911475 -5.343678 -0.335450
-10.925765 -23.319971 -15.629062
-17.884497 0.226566 1.309762
-33.285496 -9.068920 8.226012
-10.977530 -22.295122 -15.349777
-20.407993 -10.433532 6.681413
5.885874 -18.458334 2.477410
6.918025 -22.657597 0.058170
-13.262012 16.182131 -11.486168
-31.739637 15.226888 0.493181
24.250996 -24.316336 -14.400596
-33.173977 18.613453 2.312760
21.330963 -4.919604 -3.248886
7.576799 -23.684263 2.047516
2.629769 -22.278484 -5.609831
22.849442 -1.265465 -5.373578
14.604785 -23.639765 -11.502910
13.931909 -6.801466 5.028480
-28.570583 -7.416529 -8.838822
-3.558320 -11.480954 -5.460254
-8.642051 9.857866 -9.354079
-27.230686 10.221938 7.039277
7.284219 -24.222897 6.608730
-27.216398 9.756597 6.606096
-11.225856 9.384046 -10.970586
-0.742620 -10.221116 -3.998011
33.365070 -3.238245 -8.528052
-1.329309 -10.491529 -3.326926
-20.263630 9.787165 4.152335
-0.049349 -3.211962 -3.280256
21.612877 -0.698451 -8.484200
30.429049 -9.765286 -19.252253
29.082783 -25.316349 -3.322049
33.591766 -9.148005 -14.825797
33.661549 -9.750499 -15.260894
34.226585 -9.590666 -14.905880
34.100349 -3.863511 -14.771244
-19.848398 8.579011 2.096659
-0.865964 -3.840263 -3.394951
11.928100 -21.191509 -12.703078
19.120485 -2.313252 -6.145395
14.955811 -6.920528 -11.647506
0.508006 6.725180 6.910092
-14.674197 -21.528891 -5.684970
-5.842422 -21.907347 -14.947567
-20.604925 -6.395983 6.649180
-31.781828 -5.059060 -4.554384
-5.835252 -6.489001 -0.146515
-6.003382 -7.789708 0.399325
-6.229824 21.938086 -6.744800
-31.899694 2.984607 6.833768
-16.292042 2.484678 -9.726121
-7.386713 -17.183638 1.356499
25.782204 -21.988625 -11.945093
-2.828967 3.528555 -8.392006
28.078543 -25.001780 -1.864820
28.725618 -25.353771 -0.985169
8.651053 -4.951509 -9.153025
-3.247167 4.138957 -7.920941
13.764562 -23.817604 2.043738
-2.108560 2.403361 -6.505292
7.401278 -21.230934 -6.470215
-2.589621 2.640065 -8.467860
-16.406736 2.704574 -8.750887
-26.890871 -4.066878 7.340978
-23.013649 -23.139957 -11.355497
-29.083620 -23.501116 -5.958439
2.262335 13.119945 9.099277
-7.502399 -18.939871 1.322379
-20.910294 -23.814919 2.718285
-33.887856 -10.550363 1.725715
-14.685793 -2.342403 -7.615574
-11.213771 13.867984 -14.575547
10.136022 -27.931057 5.877858
18.793493 4.606848 -1.953924
-27.890907 8.658492 6.067986
14.821984 -19.797583 -4.960830
-10.371233 8.652126 -8.719165
-3.384473 0.409927 -7.025265
8.128726 -24.548225 -9.046321
-2.888768 -1.036789 -7.822958
31.434721 -13.686792 -6.428676
5.340789 -8.848233 -8.587137
-25.494230 -8.608988 7.391387
-10.721538 -16.025696 -1.904864
25.057615 -2.850069 -4.827416
-26.203079 17.138361 -1.011000
-3.525449 -0.436424 -13.488040
-29.259315 7.372279 7.097836
33.668831 -10.948278 -13.753681
-20.823076 -24.407892 1.766509
-14.058725 -24.690046 -4.769122
-30.643246 -10.657378 -1.121310
-21.173292 -25.768955 3.590405
-3.664436 12.411123 14.241839
-2.752889 13.717072 13.232811
-22.813454 -10.933932 6.057716
7.175305 -0.347491 9.937549
7.439393 4.372995 10.314242
-13.498940 18.864452 -14.006792
13.146068 3.091413 -2.809357
-1.320945 15.626466 17.255228
20.293755 -9.523599 -16.274817
-1.211438 0.250715 1.752261
-5.896512 -25.063681 -6.642357
4.721802 9.887224 15.544019
18.844294 -26.746071 7.313582
34.660889 14.793378 -18.947710
7.306130 -23.832754 0.508862
-4.053326 -20.483133 -11.629180
16.544405 -2.002357 -3.582996
-25.282536 -11.973895 1.014798
-16.086870 -16.430058 -6.678404
-31.069653 -2.632821 -6.195496
3.143843 10.681328 0.844886
-13.799504 21.540005 -7.984552
11.163454 -2.865340 -7.413085
-30.947815 12.242714 -2.013299
31.565609 -8.534196 -18.091640
31.705029 -7.780111 -18.657345
-27.531418 -10.979393 7.301174
-20.212286 -0.059084 -10.462629
-16.671324 -24.750919 -3.681097
-34.364998 -10.796408 -0.023352
-20.944986 -2.957322 -6.619203
26.879684 -26.036169 3.343366
26.258184 -3.445891 -18.838701
-30.672895 -10.876409 -4.256259
-30.322165 -10.600513 -3.762364
-17.155130 -0.811493 -5.180135
-22.085346 -6.812066 6.463939
-5.654078 -4.072607 -3.283740
24.510042 -12.557489 -10.657881
-11.096171 -12.945572 -5.096373
-19.467173 -27.061897 4.565841
18.131409 -8.833001 -5.008512
-31.653374 -10.452953 -5.526536
-33.061623 -9.503263 8.278107
6.682446 19.210857 8.140497
8.100056 16.222115 8.685367
-20.352037 -21.135326 -5.138820
-21.830980 -21.269602 -2.867092
8.340455 8.168979 -0.531998
-19.799578 3.792003 -13.938945
-23.272726 5.375606 7.466165
-5.438969 -23.289742 -14.875067
-4.318400 1.039260 -6.212752
-25.166960 -12.590556 0.468263
18.945234 -2.836535 3.021870
10.060452 -12.645880 1.404300
-15.914899 -15.942357 -5.850889
6.340133 15.065655 20.430416
-23.409981 -7.061197 -8.695292
-25.388432 -12.630629 0.666898
-28.518263 -13.457417 -2.855519
-28.748007 -9.670594 -6.595293
-11.559373 0.646010 -5.164110
24.281588 -26.393021 1.725978
-11.121457 -23.574154 -14.629889
22.357426 -5.772228 -19.266068
6.288603 9.961850 1.092286
10.424952 -20.505606 -5.652609
-19.362850 -6.796994 -6.242636
26.091644 -6.914229 -19.008224
28.009289 -0.007536 -19.447140
-0.361715 7.793323 -6.944750
4.225873 21.177395 12.506399
-30.234018 13.273575 0.049563
3.376345 0.750805 -4.216227
31.138323 -13.030423 -8.322455
20.893169 2.339516 -1.825260
4.440551 -8.200218 -6.900238
-4.492120 -25.932125 2.528849
27.813082 -13.224123 -12.870465
12.998186 -19.326679 -8.146573
18.682589 -9.499895 -2.210291
18.156160 -8.742550 -1.965883
8.060808 -14.207566 2.025220
-21.723488 18.456367 5.385873
-29.434898 -12.711105 -1.261835
-22.207455 -19.112869 -1.539778
23.045858 3.674489 -3.914794
4.741284 -25.875086 1.836255
-3.291538 -5.724606 -11.313102
-2.154572 -21.463257 -7.411278
-31.387852 -5.490598 -7.987467
-16.103777 -21.376753 -8.010627
-3.209715 -20.480932 -9.121999
9.450774 -10.447021 -6.008900
-30.087641 6.681174 6.521353
-2.506525 -1.391763 -11.841409
9.909112 -8.095254 -7.097715
-3.055202 3.838064 -7.993241
-24.388279 -5.022985 6.702876
22.710592 -3.137430 -19.011375
23.100737 -25.966362 5.330386
-4.349091 -25.943371 -1.268128
15.531629 -22.724335 -17.064724
-26.348373 -23.770721 -7.239078
-20.173817 -3.038361 7.183501
-19.561279 0.247048 4.240401
-31.085432 4.440949 6.160503
-12.512431 2.347657 -7.062159
-24.190691 0.325764 7.187624
24.273270 -4.205747 -2.116722
-24.248735 -25.895792 0.687501
-31.199043 -10.211004 -6.489203
18.188734 2.350864 -0.792042
-10.245246 2.478346 -4.967263
-31.858984 -8.538255 -5.084694
-22.506567 1.708343 8.137449
6.848863 12.059939 17.937002
34.827316 12.880866 -10.580462
-32.302265 -8.048117 -5.283299
1.680533 21.385321 11.961811
35.179760 16.308826 -15.178295
33.043488 -13.038604 -13.098492
2.276380 -4.117705 -7.540101
-3.065450 -10.310764 -6.133569
2.876088 -2.175032 -6.760366
-23.861992 14.443388 3.960782
-12.892948 5.385201 -8.689948
25.881456 -24.153887 -14.824169
-20.566307 -20.126333 -9.733601
-12.842089 3.730042 -9.431976
1.965658 -21.458708 -6.667095
-4.149342 -24.850830 -10.720273
6.986322 8.877678 -0.084966
17.929241 -28.410252 6.163847
-10.134439 -1.742125 -4.876222
-12.246955 6.688462 -9.347004
-13.150743 6.628315 -9.112068
-11.242301 5.856133 -8.144117
21.003473 5.662570 -14.040733
-4.693552 6.489935 -6.487183
-7.556645 7.747712 -8.670052
-1.745344 2.481049 -8.432463
6.328692 -23.295900 0.495277
-12.579393 14.888516 -10.753891
28.015699 -25.219236 -4.701735
0.946170 6.424160 -11.798709
-20.175074 -24.217016 1.562089
-5.562245 11.399212 -10.114349
1.585070 4.215407 -10.307866
-32.538021 -5.075048 -2.973616
-10.235976 -7.423248 -1.126359
-18.443401 -0.779037 -0.580741
-18.315207 -4.815459 4.634174
13.532710 -7.050299 -10.274162
0.776385 5.338869 -10.776799
-3.701932 12.687483 -10.383521
33.629604 3.410159 -15.010807
26.204910 9.821959 -15.403342
-21.696768 3.289035 -1.934687
-2.094690 10.718485 -9.571078
0.819984 8.462549 -8.739071
-18.685551 -10.562300 -7.524271
-22.004610 10.436998 1.652570
-16.713713 -9.785272 -12.433463
-19.925259 -9.693592 -9.511568
-21.381039 -14.858734 -2.394870
-19.722660 -19.545033 0.461525
-32.640404 -2.358543 -3.340561
-17.094545 -18.584549 -2.071696
-27.136711 8.787440 -3.195650
-13.671268 -22.305807 -2.502613
0.266393 8.196005 -11.050313
0.567193 8.860055 -11.688934
32.332455 4.493578 -17.793053
26.939682 8.778684 -17.235590
-1.634828 11.812576 -10.337621
-24.628300 12.492883 0.543081
22.066656 -26.249569 0.665842
20.782328 -0.336589 -11.927464
-6.380841 13.333839 -10.447884
-33.255329 -5.712796 -1.526578
-18.532030 -24.164400 1.157527
34.153744 -5.704013 -14.368820
-28.652075 -9.259369 -6.914916
-28.179157 -14.499771 -2.158985
-29.352222 -13.338081 -1.077331
35.183784 -6.002786 -13.960807
4.020958 19.494177 9.226393
8.070797 14.943724 10.048923
-30.555273 -10.021448 -4.895329
-19.624319 -19.738134 -5.691686
3.409687 12.336436 2.935414
-21.537777 -14.207513 -1.498514
-22.986055 -13.052809 -3.229234
-24.002100 -10.387157 -6.060233
-22.931868 -9.721075 -6.115572
-16.422394 -16.273462 -2.074050
-19.344143 -15.991215 -0.159883
-11.059847 -23.880873 -0.318900
-15.658119 -22.424332 3.609288
-21.028797 -16.132973 1.452212
10.314736 -25.691507 -5.385124
23.750790 -11.283066 -6.444948
28.070438 6.551357 -18.752131
36.396687 13.786245 -18.482986
-25.661251 2.788435 7.987918
-17.414152 -5.002871 -8.021654
-2.745996 -3.869133 -9.458829
18.857445 3.442191 1.897319
-24.740559 3.190805 8.642285
-30.753046 -6.926445 -6.305537
-31.821106 -7.769908 -6.429096
16.344812 4.197218 -0.547158
-17.140104 -21.369740 -7.808504
-32.433414 5.120620 3.711243
17.570078 -2.948552 -5.743884
-33.008301 -4.261320 -2.137001
20.189604 4.258883 3.124554
-33.389771 -3.370224 -2.011719
-34.359074 0.705168 2.765299
-34.283382 -4.623855 7.232254
20.870649 -0.119066 -6.075008
-29.527109 0.064054 8.423650
-33.042969 2.967841 -0.044035
33.421440 -12.869765 -10.555914
31.726196 -4.380440 -3.578009
-3.464824 1.090160 -8.910309
31.843704 -13.377621 -12.437768
7.347898 -25.337421 8.641809
29.887558 -10.006576 -1.492841
-8.348034 16.115965 -14.915946
31.786495 0.968394 -8.989259
3.925669 -9.485805 7.759958
0.545028 -25.425245 0.726997
-33.257431 8.502551 0.385028
-17.025162 7.440022 -15.715588
-1.984847 -23.183779 0.183087
5.782417 -26.847155 3.797711
6.187130 -7.563514 8.073246
16.489788 -21.587425 -16.579010
16.744749 -23.475273 -15.054574
17.553061 -23.984886 -16.355263
16.682713 -23.028105 -17.677286
-0.619106 -22.963436 0.654284
-32.637371 9.324973 0.630585
15.177881 1.035878 6.701539
-8.635887 -10.468371 -10.359651
-27.469988 -8.967619 7.968903
-9.461230 -18.102905 -2.457493
-30.589956 7.819045 5.459045
-0.177721 8.548026 -6.575759
-0.060690 -6.669154 -8.672181
33.782909 -1.560075 -8.658006
4.464419 -5.381861 -7.871240
18.855646 1.410002 -6.653008
-7.360834 -25.336075 -0.318900
-9.407239 -26.325914 1.459305
-32.299953 3.198627 3.715796
-6.423757 -13.262052 -0.726502
-15.796699 -24.671991 2.440777
-34.636505 -4.592195 2.113485
-5.870334 -12.051664 -0.369089
27.175642 -12.163080 -9.725959
-17.048920 6.871743 -12.929416
4.534111 -12.127481 -1.257012
33.581146 6.574283 -10.694458
-23.234814 -24.259926 -4.319705
10.058839 6.407375 -1.548560
-20.540548 -24.433342 -6.211143
-13.097865 -0.013782 -5.602930
-23.358500 -2.644623 7.011403
-18.674082 -2.192641 -0.863580
13.647267 6.083987 9.659844
-20.757778 13.642090 3.281301
27.682278 -22.426800 -6.321911
-10.598604 19.825935 -5.962410
-21.535734 20.259306 5.246510
10.485302 -12.768367 6.346326
-14.783130 -13.775427 -3.242985
18.644190 5.080709 -2.210612
-18.510941 -9.495152 -10.752014
-20.575153 -12.682970 1.188146
32.596195 -11.229575 -6.169729
-15.430885 -12.447008 -3.289217
-27.398819 -14.132903 -5.025864
34.782436 -11.290260 -7.424346
30.795723 15.778633 -18.690617
-19.855066 3.138242 -13.918234
14.510008 -24.948463 -9.081359
-19.525198 -21.636202 -4.265505
7.379411 8.008265 0.216473
-22.166714 -21.054552 -1.237705
2.440681 -11.764902 1.728442
-29.291010 13.863352 4.821773
-12.504384 13.707257 -12.210525
-5.435915 6.066641 -7.761168
4.387170 -14.343712 3.351936
-25.419617 -7.440761 7.197632
14.006295 9.299787 2.638410
32.255104 -13.767061 -10.516329
-29.919033 18.868469 0.910377
-14.007575 20.576630 -12.005310
3.318260 -12.579111 3.146379
-14.033772 -21.328226 -8.109122
-25.403183 4.599377 -3.880011
2.350166 5.039724 -9.434040
10.173849 7.985990 10.939946
-20.257471 0.544039 -11.296444
-13.241599 -20.961319 -7.172503
-6.010649 -11.808518 -7.966485
-1.646252 7.648273 -1.914506
35.162613 14.152974 -18.369967
-0.421950 15.791350 9.174799
28.529932 1.309227 -5.360979
-7.461585 -23.393866 -13.060610
-8.614747 2.481423 -4.934914
17.209478 -19.851915 -5.556096
17.454075 -26.637568 4.497010
-15.568544 -4.072964 -4.932634
20.466330 4.797905 -12.315632
16.969013 2.664393 0.942570
19.418743 -26.912050 1.879195
-2.141741 -23.464397 -10.949027
-5.057667 -20.248068 -11.342711
14.769913 -6.980035 5.585151
-33.414799 4.156114 1.416234
23.132355 -23.682753 2.810411
16.872532 -9.799714 5.201630
16.322523 0.728872 2.447389
4.919996 -20.409988 -11.204240
-15.819025 -1.832940 -11.432314
-4.763774 19.685724 -12.335370
-19.254744 3.721564 -12.389525
-6.914579 -20.215981 -11.834853
22.146933 2.572825 -14.109000
13.824561 -23.967752 3.283990
-3.327756 -2.428194 -12.578594
-23.555950 20.230141 6.163297
22.407476 -11.543568 -6.842010
-23.282843 23.247116 5.210660
4.748376 -7.841456 7.321604
-22.298515 -8.185105 -9.029051
-23.512960 -15.265555 -2.715948
-19.715965 -22.860611 -14.497190
-23.690422 -9.607246 -8.253335
-20.453341 -19.570631 -6.450970
-4.728269 20.895494 -13.541741
-15.874856 -20.341928 -10.670140
-13.551750 -20.716862 -12.304675
-18.934076 -19.652475 -3.523315
-24.582136 -19.901455 -5.420693
-19.138670 4.445701 -12.612928
32.094612 1.556370 -18.217394
22.492283 -26.371601 -1.330363
23.929426 7.893287 -14.316636
32.638584 3.717299 -17.021633
0.030103 9.664610 -10.763544
29.304930 -22.664473 -7.417130
31.605068 3.779392 -17.413849
32.232231 5.647515 -7.695525
9.097788 15.136212 10.500078
-30.835388 -9.070993 -5.745377
3.770234 6.636448 -4.389509
2.715811 -24.300745 -7.253170
18.663095 -9.232364 -8.654958
-20.110615 3.873611 -9.293977
-6.257555 8.656190 -8.437115
-29.566149 9.099906 7.264794
-6.145825 -16.774010 -2.277626
10.997360 -23.016859 -0.931416
-6.275788 8.732633 -17.166241
8.996282 -3.191154 9.604467
20.404108 4.663451 -5.675859
-34.472198 -8.114167 8.886961
-13.435974 -8.855753 -13.931245
-18.292643 -10.314174 -6.700691
-19.082346 -9.687806 -10.268300
-19.152100 -18.103193 -3.022957
10.454598 -5.641827 7.900936
