ply
format ascii 1.0
element vertex 1576
property float x
property float y
property float z
end_header
-15.933135 -18.564077 -0.388547
-8.553644 -14.661582 -5.315217
-31.069126 -15.900274 -19.536247
-10.680142 -15.793246 -5.700972
1.107885 -8.487008 14.303290
-8.906888 -13.751610 -8.470070
-15.390112 1.380535 -0.693806
4.205955 -11.153868 -7.088837
-0.356403 -16.916452 -4.796475
-1.776571 11.401693 21.807755
-0.695678 -15.348330 -5.931326
-1.216049 11.335388 22.378679
-7.108003 15.386369 21.758137
-12.806634 -3.740209 -5.848778
13.487373 17.564346 7.902984
-27.509304 -16.793533 -11.913454
-0.439223 21.406219 13.363050
14.169323 20.712130 -1.421452
20.279531 -24.419210 3.249858
-14.597425 -33.609627 20.159134
17.388033 -24.684252 1.376227
17.506584 -24.276106 1.039437
-13.765779 -24.263712 9.831503
-19.514040 19.292940 6.295363
-10.635238 -27.507601 -11.586514
-27.302069 -4.037485 -13.840083
22.490179 -22.770655 7.408618
-18.143333 -31.479425 14.840033
14.408270 28.679953 -13.415889
11.301607 33.312061 -16.437656
2.259039 13.524559 -9.572946
-18.102945 12.913060 9.437544
-17.726322 -31.878418 18.309395
-27.771992 -24.041449 14.233214
-29.704781 -4.659692 12.017445
-1.917999 -14.431094 11.303598
-27.756720 -21.305103 13.070974
-15.278181 15.134296 13.097001
12.855753 36.316460 1.066023
8.512234 35.912594 -3.138321
10.473143 36.381363 -1.161933
17.980742 36.321793 5.310594
15.012944 35.830399 3.355840
1.011179 29.469053 22.907478
5.286096 34.936234 15.010152
9.644188 35.070381 13.394811
4.885871 34.665546 15.718412
8.615051 34.872452 11.530907
-26.933615 -6.668468 8.687426
-18.888905 -3.740642 4.296679
-18.724119 -27.513960 -16.252270
-23.094543 -21.737497 -18.489767
18.826698 33.560482 9.355153
-18.882401 -19.099766 -11.776214
-16.399702 -21.348967 -10.534618
2.684091 34.862309 11.694221
3.594630 36.206284 10.642006
-10.003138 -32.426575 -11.882611
4.652532 -11.408125 13.584723
-13.722216 24.347336 -6.706182
-14.944024 25.766260 -5.161613
-13.576336 24.367571 -8.429645
-15.722214 23.410589 -5.952093
4.690644 -10.441524 13.134609
-30.772701 -18.519974 15.463868
-31.746019 -18.563631 14.681821
-20.335613 -10.271372 -11.580442
13.155652 -19.140520 9.064319
4.308183 35.394909 5.570974
4.904949 35.316624 7.019120
-26.612816 -26.075804 -24.685249
-15.770010 3.727783 9.249200
12.666360 -11.327919 -5.898573
-21.459623 -28.570429 9.952376
-25.256546 -1.300435 -14.118832
24.009798 -8.319865 0.250552
-7.982512 35.103725 -3.130076
14.989218 17.682911 -1.436394
-25.840570 -5.720551 -9.618422
5.187409 -20.682760 9.516828
21.781496 -15.539751 8.829082
14.912287 23.144644 -6.295877
-2.452846 -11.021076 10.442473
-24.595379 -7.942840 -13.621673
-24.464640 -5.304484 -13.047482
-15.371337 -2.768422 3.070548
9.042746 22.171146 -7.230608
-18.689573 -6.249722 -8.849921
-18.603262 -18.596064 4.599959
-2.552987 -8.974064 -6.945565
1.347688 -21.413080 -4.135427
-18.616257 -1.973560 -3.989466
13.713704 18.011339 9.176957
-11.067675 -22.234821 8.977298
1.135095 17.354136 20.840027
-18.829458 -4.828715 -8.477122
7.601278 -11.120815 11.417095
17.585768 -23.724390 7.225704
-4.362275 8.724929 -12.174686
17.424641 31.484015 -10.282534
-3.710580 15.213391 -17.748528
-19.755812 0.058227 -5.060324
2.794239 -23.380665 -5.973318
15.358706 -22.792223 7.340703
-0.398711 11.626122 -13.358267
-7.203965 23.994837 -15.785232
-21.076582 31.349356 -2.171958
-15.050759 20.322515 15.394479
-24.989933 -26.907303 -21.646851
-9.562147 24.046970 15.012491
-21.591743 31.046638 -4.892223
-20.906334 -27.023842 -18.488811
-16.567036 25.171135 6.963428
2.283535 11.837338 -10.562559
-11.725077 30.581743 -13.665233
-26.671749 -29.308500 -22.977781
-24.820744 -27.998728 -22.988773
-26.870836 -4.125991 -10.085416
-16.598618 12.457454 10.423485
-9.084361 -24.432520 -3.245274
15.632201 -22.364588 7.799010
0.306787 13.136131 -11.991083
-9.278517 1.927815 -12.113853
-18.518797 33.517204 -3.112363
25.025984 -14.862538 -4.248942
-28.370987 -14.080399 17.024176
2.258495 -11.070563 13.513967
32.582890 -14.000055 4.636800
28.077181 -12.730495 0.251850
-31.585123 -19.004036 16.216885
28.950399 -5.340112 1.129881
27.698654 -6.081046 3.009368
-18.515917 -35.219112 -17.045216
-12.440530 -30.292070 17.798018
33.979851 -12.619605 2.054754
-20.489183 25.547741 4.075938
-27.311150 -16.330297 15.860785
-3.233745 25.531273 -13.509779
-12.709805 -32.607887 18.345654
3.602532 30.906185 22.641119
0.989752 16.869085 -9.056018
19.421288 -18.625561 9.929109
3.449331 21.994175 13.049435
-28.497389 -16.572512 17.536947
5.163067 21.074505 11.178118
20.184296 -5.539422 2.933213
-21.441563 -9.581462 -4.472187
-21.386337 -29.573149 -13.089807
26.828835 -6.369097 0.113761
-14.306275 -8.168020 -6.971339
22.232038 -4.910799 1.917588
-12.621644 -28.198473 -12.507233
-12.354633 -13.424429 -7.426514
-12.205926 -12.880713 -8.135763
-15.840297 -5.214825 3.715505
-2.051268 -6.905973 -8.304111
-11.244744 -17.735498 1.690226
-11.849954 -9.302045 -8.362510
-11.934019 -30.312834 -17.420189
-11.307384 -6.292008 -6.964976
7.718406 0.369202 -4.212163
8.207432 -14.133358 10.224940
3.149150 5.666363 -4.788217
-12.696070 -7.253735 0.209285
-3.212518 -9.894545 -5.062440
-13.790251 -5.536733 0.019110
-1.839510 -11.062105 -6.252562
-2.024629 -11.394600 -5.050907
-7.324550 -5.717077 -6.395153
-9.929032 -3.004391 -5.707095
-9.334957 -5.424101 -4.670846
19.658766 26.716791 10.075706
14.152670 22.662525 10.606393
-1.775400 23.171530 11.589705
15.052334 25.524004 16.304401
-23.086620 24.379810 -2.006028
15.435741 -8.400167 5.639224
14.318773 -8.538662 2.936494
20.106346 -24.712841 0.325894
5.373649 12.153445 -5.021269
4.930680 11.135368 -6.637743
4.351259 10.184649 -6.924507
-12.957515 12.153442 12.885595
2.585700 36.119350 -3.509026
-16.815313 0.952104 -3.598777
21.406645 -23.432451 -0.800528
6.375475 35.414127 -1.711077
18.520695 -23.536728 -3.075939
14.953434 -27.167217 -3.745711
-25.471397 -3.507425 13.363308
-2.504720 35.758968 -3.273689
14.284891 17.803202 6.618236
14.455715 34.592117 12.526689
3.658881 35.656155 5.489213
-30.048553 -11.497155 17.636610
2.502256 16.249414 -13.678480
-20.548296 -34.613640 26.317970
24.147732 -7.940104 4.657212
3.246959 22.186993 8.461093
-22.527214 -6.681506 -6.250507
-25.349564 -7.855405 -9.144464
14.558592 19.890327 1.970858
14.526052 -25.099636 -4.340097
-11.968889 15.384209 -12.913379
18.144714 -23.685942 -3.703587
19.755522 -22.955660 -2.786863
1.071172 -22.645805 6.886620
1.685126 18.648277 10.639777
-19.972759 -1.003654 6.672089
-1.546018 19.944592 10.193912
4.613800 37.196754 -11.370876
31.633265 -19.885235 1.207456
-3.343009 4.216503 17.290792
-17.898649 2.778363 9.169333
21.291258 -7.243690 4.392023
-9.981010 24.434649 -11.088394
-19.654167 24.922720 -2.436084
17.773802 -9.414860 4.743617
11.578610 26.453293 -10.710449
-6.895311 33.061707 -14.019284
15.215053 22.288542 -7.724381
14.619733 23.333883 -7.805192
30.475960 -18.931026 -0.487593
2.109482 -1.501518 12.340199
26.013454 -21.431339 -1.419140
-8.849596 -24.352638 10.618480
19.615744 -11.033157 -2.245049
-24.441595 -30.464193 -22.465431
-28.400829 -27.445724 -22.376396
19.788691 -17.739517 -5.953926
-20.316765 -35.298309 -23.672707
23.005371 -22.905853 -5.303310
23.970869 -22.244804 -5.501390
-21.475027 -2.856146 5.995182
-18.326450 -23.903503 -12.642279
0.082479 -23.567093 7.270775
-13.171244 19.665916 -10.901068
22.079002 -22.248610 -5.573269
-16.927698 32.879860 5.722338
-15.503897 19.290653 -9.509319
-9.520315 12.309344 -7.250724
-18.444534 24.382421 -2.822416
27.569998 -20.244190 -2.363108
11.284136 -2.717292 -1.037370
15.032183 -11.568384 -5.691941
-26.337414 -34.423653 23.757355
-17.499584 -34.769791 13.064697
29.835817 -21.008291 0.512910
12.877332 -3.424830 0.097717
12.881273 -4.799699 3.156145
5.648331 -3.522190 -7.085188
12.869456 -9.113464 7.355180
8.964775 -7.975372 9.541956
-5.601638 -28.286762 -11.884619
-27.428619 -27.642529 -23.962343
9.040874 25.769947 -9.505109
-28.577257 -10.066430 -11.169909
9.549478 -7.250325 11.390219
3.012567 25.319672 -14.369103
-9.274893 -31.854370 -10.823534
-6.739823 -30.612574 -11.571613
-17.387785 19.875402 10.871568
-7.989705 34.025421 16.419401
4.376610 22.991776 -9.501029
-16.739149 22.795988 11.853442
8.456263 23.680838 -7.509777
-6.912077 3.957567 -11.011361
-6.687956 4.146320 -11.248816
-14.036081 22.828300 14.128753
-6.361528 19.917398 20.352907
-6.662680 -24.576273 12.140120
7.044338 22.698565 -6.440993
4.219685 -24.758884 0.762323
-23.481386 -7.798835 12.531482
-16.052692 23.596991 12.457088
-16.079264 22.670883 13.128514
4.555511 35.601360 4.158942
5.317267 23.613541 -8.616617
14.119639 -19.463509 -6.537739
13.464700 -7.871882 -1.290263
-32.891033 -13.595821 17.253729
-29.743715 -11.152555 12.076352
-0.842592 29.943041 -20.875233
-27.633406 -17.577423 18.148701
-14.071839 -32.287739 16.981272
-28.851442 -10.357067 12.307784
-14.961740 -30.805725 16.994162
24.158104 -8.369178 1.113050
16.055870 30.461637 -11.308060
-12.131344 17.499872 17.119961
-5.117335 -14.534440 -6.583285
-11.233880 -7.504834 -6.321623
-14.160340 -12.664468 0.598045
10.608058 17.292175 -3.354992
-5.052952 -28.224041 -7.529259
5.699101 -25.322266 3.401444
-4.234228 -26.860542 9.821846
-17.582552 32.519978 -8.391072
21.827456 30.033278 0.584743
22.152014 -9.988737 4.540296
-14.838574 32.903336 -10.514637
6.236941 -25.955627 4.386362
5.800194 23.230154 -6.014729
-18.754732 -13.001588 3.522410
0.089618 -22.054428 -7.175758
-15.387709 27.846544 4.182597
-31.133045 -26.593433 20.984276
30.313105 -17.827593 4.703633
-22.593376 -10.856633 -5.599829
-18.321537 -36.139439 -24.382336
-2.089043 -24.885981 0.382269
0.571807 -25.098530 3.484304
-21.831671 -9.224300 4.467410
-4.171618 -22.172207 10.891281
-5.054357 0.415813 -12.331882
-5.549683 23.264130 18.955086
-3.052933 -1.610236 -12.152747
-19.505302 -5.718908 10.147613
-17.996347 -30.673283 9.747075
-18.206413 -11.504075 -9.914139
-24.953821 -4.770201 12.661543
-1.550791 -24.697842 10.421464
14.656892 35.052776 13.371093
3.644275 -23.313919 6.600949
-21.197054 -27.094687 -10.380422
-17.083937 28.444677 5.298745
7.707872 -9.431335 11.947367
-17.264954 -26.821493 -13.933266
6.825265 36.803089 0.298686
-8.705322 27.479013 13.263836
-10.406007 34.107307 -1.602145
-7.108269 35.977959 -3.307890
-9.193811 35.073364 -1.912050
1.593474 -2.841671 11.456097
1.021131 -23.585381 8.783665
-1.032140 -1.734842 -9.786798
7.404472 6.945786 7.024578
18.929474 33.288830 9.048220
-5.615437 33.034069 19.052588
12.161911 35.874718 4.886036
17.926769 35.986153 7.041051
12.769731 24.595581 -9.157670
11.119003 36.686913 -2.917519
14.502479 35.724178 0.420296
-6.625381 -28.010796 -5.730423
-7.435647 -6.232074 -6.336530
-12.708014 -5.644378 1.110797
17.938574 36.802223 -5.178272
-3.273079 -10.419724 -5.802028
-19.140896 7.175719 -1.105367
0.711474 22.139603 -4.823676
13.965370 36.574116 -3.453444
-17.132072 4.046880 -4.637470
6.715645 -21.736254 -4.376771
15.195563 36.636158 -5.004305
-12.353543 -28.831991 -5.239039
-25.091055 -35.126297 22.237263
5.975292 -24.732157 -0.121237
-3.454786 -11.593272 -6.451201
-2.616308 16.891928 22.150126
30.512894 -20.311995 -0.355874
15.689127 36.962967 -3.494738
17.983864 35.422001 -2.079701
13.034615 37.365120 -6.808815
15.914406 36.562244 -4.139718
11.768587 36.187473 -7.822585
3.581722 33.471596 21.088182
-16.806002 34.333000 0.894700
-23.686047 -30.334267 19.927032
-14.710732 25.641438 -8.961172
12.346622 17.674126 8.310056
13.219865 37.836918 -9.928186
-7.787872 -11.752293 9.136313
13.552465 -11.831728 10.720330
14.873962 26.077248 13.151917
-27.724249 -10.887332 -10.153990
-19.986824 -34.451881 -18.371931
-14.936616 -22.126457 -2.891951
11.570415 20.107313 -7.173053
-10.047621 -23.156858 -8.245473
-22.114429 1.773716 -7.776978
-22.602867 -18.156084 12.686517
0.018399 19.034882 21.754772
-18.594753 -36.372318 21.377123
-12.659810 -27.261585 5.716941
24.332684 -4.503042 4.899200
-23.953848 -30.651823 21.332802
-10.753997 6.323415 15.507274
-22.727896 -35.834301 26.246563
7.581940 10.113264 0.313015
-15.056343 8.662070 9.358602
-24.729479 -24.171906 10.600906
-24.974810 -0.045855 -13.552032
-19.038691 -1.328515 -3.245385
-7.346186 8.765752 15.124668
-25.807459 -25.274107 18.054026
-23.533272 -28.523479 17.073076
2.414405 7.174990 -7.184533
2.575001 -21.589907 -3.241770
3.586556 23.840540 -7.634699
-21.810131 -14.396357 -13.865562
-7.043547 33.942413 12.742743
-6.766400 -9.973172 -4.102885
8.131789 9.912968 0.869414
10.284709 29.693178 -14.687839
-21.111397 17.959774 1.151978
-22.571692 -2.036092 -7.638547
22.293627 -24.057592 0.463773
3.682693 14.721301 -16.211349
-13.069064 14.550717 -9.643808
-12.456268 13.639814 -11.997203
20.210489 27.347071 5.414199
-10.540008 13.815617 -12.889829
14.306728 19.057341 4.053311
-3.637173 18.348513 22.142750
-8.345828 14.707770 -14.954919
-6.429768 14.741912 -15.998240
-7.424860 12.496018 -11.500045
-16.758938 3.195961 -7.769965
-15.905507 3.105153 -9.124756
13.158121 23.980391 11.416017
-25.829144 -27.027969 -23.678499
-4.969879 14.399612 -15.517786
3.578914 23.994497 21.284611
-1.339357 10.473639 -15.729362
-23.933891 -13.156069 -7.059723
11.431079 -1.535527 -3.032435
3.468457 16.680504 -15.443498
-13.841928 20.439259 15.047708
-19.367594 -19.094545 11.099023
-19.613306 9.175879 0.640419
15.566734 23.224241 -4.116150
14.224866 22.852362 -6.500736
-19.015623 -0.117377 -9.745448
11.164229 23.266146 -8.498383
-14.080719 2.980431 -11.565145
-29.803980 -9.004576 11.208711
-6.101087 -29.339720 12.991838
-19.147728 17.376225 7.704585
-19.473341 9.345358 1.159622
24.829683 -17.802055 7.667058
-13.755316 -25.349680 -2.414693
-20.416626 1.339625 -5.721748
32.684605 -17.243797 -0.208726
-10.169734 18.226688 18.904636
14.059549 -25.681253 5.655470
-21.146973 -27.749495 8.209602
2.111263 3.297200 9.848974
0.443209 -0.499043 13.943739
-24.626682 -0.908605 -14.031386
12.005549 35.808506 -4.464190
5.622693 -0.880572 8.676191
2.914469 -1.380406 12.960821
-20.328264 2.434257 -5.907611
-5.991830 11.496494 -9.936645
0.110788 12.332988 -16.877354
-17.788219 2.854697 -8.031706
2.566864 34.966686 15.166862
-20.303141 -9.714437 -11.359033
2.166579 34.631954 14.885030
15.487239 28.535173 -10.344428
-6.497165 11.793323 19.411779
16.624943 -27.918438 7.541480
-6.596792 34.515625 5.805348
-3.653853 34.268204 7.173457
4.250433 36.343643 17.986006
-29.116682 -27.180174 17.225088
11.958550 26.658775 15.131232
1.135309 14.268679 -15.904623
12.399083 32.402725 18.914137
-20.857763 -33.386436 12.868883
-6.507193 -6.397082 10.387600
-15.717571 -15.723328 -8.868448
-5.323132 14.304286 -17.425966
-15.088929 -15.460266 -9.757024
-12.351305 -20.636913 -7.200226
10.636886 32.926659 -17.707190
-20.010141 13.284225 6.311356
-4.509512 17.449245 -18.084976
3.134409 13.933013 -3.196839
5.081690 -10.023648 13.190627
5.200667 -9.555476 11.828586
-11.710376 1.598527 11.057599
3.308709 6.585357 -9.131800
1.786768 -13.753390 11.191141
4.452064 16.949610 4.049813
16.387367 21.937395 3.485646
5.426214 -12.512946 12.244919
-3.926569 33.842136 11.938711
-0.134980 3.523786 -7.507291
6.256722 -7.383709 12.255889
6.808339 -3.033146 -7.766265
5.472475 -6.194646 13.587088
-14.762276 -35.881519 19.482466
-26.152185 -14.340246 -9.232643
5.855405 -3.592203 12.884686
-11.596141 11.787917 13.162127
-1.698423 2.576596 13.337647
4.565072 -10.159804 14.033937
4.786019 -9.248609 14.701885
4.909083 -6.868422 15.521472
8.275907 -7.267813 12.126397
-4.551142 1.094022 15.517238
1.342222 -7.724651 14.501468
-21.097816 -24.807074 -7.987591
-22.715895 23.888451 2.280799
-22.964991 23.673481 0.901516
-19.058233 -25.179058 -7.484177
-0.374112 -6.683935 14.197086
6.015747 -4.633436 11.711433
-26.994925 -22.552616 -20.159666
3.976737 1.787932 8.923104
7.320857 34.178761 -21.090492
9.137919 26.050337 -11.452844
4.933266 0.815164 8.724345
3.620185 -1.346905 11.018903
-19.153881 -30.160774 -19.534271
-25.472193 -6.022182 8.476928
-15.681820 2.697877 8.204616
0.691667 -16.398033 10.649224
-20.202990 2.309784 -7.125287
23.024635 -6.481322 -1.974234
8.768586 34.178669 -18.908209
4.186458 -5.055853 11.276476
-11.422666 6.258695 10.699025
7.836604 -25.114784 6.054773
10.749450 0.731247 -3.185743
9.780969 -13.468719 11.211723
21.066578 -13.473264 2.631058
-33.586559 -14.108869 18.281637
19.741352 -8.047966 -2.240830
-18.065634 5.097487 1.024333
9.427958 24.842901 13.523809
17.824047 -8.675753 3.494594
-12.988289 -25.836292 5.077071
24.302614 -5.841557 5.833111
24.790127 -5.442447 4.200824
-7.954944 -18.675669 6.788356
-16.041677 -0.182851 -2.276482
-0.592738 -10.278265 -9.031025
16.810574 36.649555 -6.606390
24.851803 -15.345490 7.175828
-0.801704 20.922644 -5.797491
33.380325 -11.359748 0.265173
-25.747467 -17.045746 -8.806015
24.849165 -3.560487 1.453218
-22.422905 -0.746050 -6.502968
-23.911242 -31.593363 19.891375
-3.426372 22.139189 20.046188
-23.499514 -2.701563 -6.099440
-17.871849 -4.553316 -2.622402
-10.297076 -32.533092 -18.013723
2.661556 34.797428 1.763628
-1.321939 18.510801 21.810495
-18.132696 -36.465530 20.785015
14.451324 19.332613 6.311660
27.279667 -13.043412 -2.772830
-29.950045 -27.266840 22.682741
-9.104094 7.652668 14.200176
-16.943285 24.503572 8.505175
-14.962057 7.656688 10.221974
1.846825 8.169610 -7.471340
-15.512650 8.276510 9.107017
13.134966 18.294989 9.243680
1.192484 18.355782 19.664957
-6.072027 10.880746 15.075881
7.288264 11.128263 0.664687
-22.571232 -31.899309 19.247482
-0.371676 18.615168 22.851637
14.877270 18.454897 7.139942
-6.413375 25.313166 -15.810589
-17.707504 -12.217461 10.173055
-5.663082 28.849184 17.184711
15.041664 36.557705 -4.400219
-14.014085 -13.789261 2.745339
-12.459551 -16.321373 1.591889
-3.059090 -12.204321 -4.834486
-8.973921 -32.081234 -12.378166
0.807737 -22.328106 7.171873
11.740170 -11.113554 10.581849
12.000272 0.346777 -0.331460
-22.953890 0.296625 12.423675
4.765437 31.822920 -20.064419
16.584908 23.229509 10.924753
-20.049913 -11.919573 -11.020170
-4.364943 9.894149 18.035189
7.271934 35.281570 8.138011
-27.444279 -1.285496 -12.551335
-0.087838 -9.934991 13.714207
-3.166800 -5.354160 15.674313
14.117393 18.961853 9.463335
-25.053806 1.065506 9.204904
-2.775414 -23.217230 12.002362
-14.493435 -31.368902 10.107711
32.112267 -11.806958 4.389058
7.098444 36.032104 -5.324872
-8.615949 -32.037254 14.705917
6.700571 22.281385 11.378586
10.680560 37.096985 -7.555841
9.636245 17.237362 10.777056
1.707143 13.852575 -14.548714
-23.652164 -9.663653 12.375247
11.977779 27.348827 -13.785826
-8.714619 34.905449 -1.710799
-20.322361 -3.846068 -9.243623
-9.392118 27.948343 12.511462
14.994323 18.967663 -1.888385
-18.202055 -34.691891 -27.432049
-15.933373 -29.292820 -14.237255
-18.442436 -35.116283 -26.379585
-2.908210 11.665037 -12.468071
-3.176542 -22.628649 0.696011
22.075317 -5.641619 4.691362
-4.109489 21.972878 19.398125
-8.508953 -22.965372 4.184698
-20.082668 -10.547331 3.627313
21.947515 -6.611848 4.989601
-9.050056 34.894699 -9.315428
-25.613413 -20.201120 -11.607738
0.377460 20.859974 19.770432
-20.264803 -28.172834 -9.828267
-1.825204 20.037580 -18.112848
15.756440 21.552149 7.245514
3.891110 35.630695 3.013506
2.962468 34.894512 4.330627
2.128770 23.532856 -8.086184
33.368355 -12.971875 3.983302
9.498013 36.182369 2.931521
13.262503 17.546787 -2.400361
-8.232867 14.577327 20.933136
-2.167987 -25.489399 -8.801126
-20.059555 27.990438 -6.593760
-16.516457 -26.088345 5.974082
-17.240232 -9.157327 -9.271412
-16.162865 -24.824766 5.243637
-1.766221 -25.433327 -9.773720
-22.571466 -20.112217 6.075600
-17.909603 -21.683680 -3.305197
-22.617025 -20.872864 -7.142937
-18.418285 -20.590803 -2.728010
5.730590 11.901356 5.941335
-20.924379 -24.000048 7.320901
-5.167754 34.777973 5.786236
-2.575594 35.178711 8.991747
-15.511499 34.614407 -3.740761
-11.143982 34.865158 -8.425533
-5.547407 34.631050 7.201129
16.616472 -26.290657 8.446140
16.854601 27.637634 -9.241238
-14.142315 26.198534 6.893865
29.791410 -17.753017 6.032523
-6.579447 34.864647 5.163671
18.202524 -26.302116 6.232025
-12.353532 35.302654 -0.034779
-14.311653 -27.858734 -12.607676
29.723034 -12.187166 1.028164
-28.860409 -7.201399 15.332227
3.777050 24.058765 -11.434319
13.315304 28.111294 -15.694052
5.512419 23.622536 -12.920118
-3.964264 34.998829 7.102081
-21.639263 -17.097744 -4.655115
-23.010813 -15.595962 -5.165519
10.807542 35.631943 14.454883
5.837031 34.378178 18.179295
15.720097 -27.805773 7.837729
-13.592752 34.905056 -2.670182
-7.198705 -30.501482 13.541731
-8.795569 33.449089 16.772951
-17.874979 6.570918 0.628829
19.779324 -15.738081 9.419588
-16.715149 -31.469719 17.811848
-31.929899 -13.626307 16.358679
-6.365902 7.027722 -12.288912
-16.450460 -31.264376 17.801714
-28.871342 -18.964808 17.157694
3.376832 10.046099 7.954145
-1.800522 22.581287 11.631207
-17.410168 32.994465 5.337443
-2.107925 32.134262 20.813650
14.713408 22.315495 11.323741
8.389826 16.537853 0.079089
28.926815 -15.944571 -3.033135
-13.943705 17.943069 -11.236241
-8.698164 34.827164 0.920992
-13.992415 34.260784 4.936665
2.548727 -19.866924 11.371902
-15.695896 9.992924 9.632686
-24.973154 -27.784863 20.296509
11.956156 -18.725689 10.101457
18.974625 28.458136 6.982509
-25.963604 -27.770866 19.556070
-14.916666 -33.629341 -13.072771
5.400119 -0.780938 -6.318751
-25.121174 -35.331314 21.918991
-13.352540 2.710733 10.043954
-21.352180 -36.546513 26.021013
-7.136456 22.229967 18.388166
10.945992 -15.204268 11.861404
-25.400177 -33.412586 16.712965
1.171957 3.122773 -4.748725
10.792849 -7.052961 -4.977331
-6.974595 32.490875 -16.071177
5.672564 -2.245274 -4.971669
-8.733362 7.538509 -11.758325
-0.743499 4.029882 -5.596351
22.207754 -16.909218 8.670811
-15.460698 -30.466297 8.359259
-17.128454 -17.268929 -1.605950
-6.951586 -21.117729 8.689794
-1.954021 -25.327358 8.644356
-19.747309 -31.740921 11.903661
-2.617345 33.132523 19.755474
-11.622075 -30.812788 -15.516285
-11.544340 -30.604700 -15.820549
24.716066 -22.654842 -0.294506
-15.367556 0.430512 10.046052
2.268135 -18.433041 11.696012
2.596022 0.872227 -8.366655
8.374219 0.789621 -3.734027
-12.828878 1.480710 15.701062
-11.955185 4.482854 9.760519
3.457915 4.456247 -4.203432
-1.122864 34.598331 5.225329
-2.965467 34.513920 6.361998
0.175090 4.397507 -4.220479
-0.983044 -12.985359 11.509822
8.038789 -4.485746 -6.839616
0.566388 11.406857 17.379564
10.202415 28.190067 -12.238585
-1.418773 10.184013 17.867344
-18.014626 29.694740 -8.171391
-16.483206 29.427958 -11.156517
7.090809 36.280071 7.519887
-3.302884 9.732484 18.194540
-31.903128 -29.340733 22.074278
-5.580651 -24.873104 12.881957
5.535723 -24.000046 1.251298
-31.673002 -24.980450 20.303432
-24.748451 -5.747870 12.645662
7.949592 33.143040 20.153248
-24.009579 -15.092873 -15.527260
21.301908 -22.799547 6.843576
9.537502 34.470036 17.421291
8.835698 35.158741 15.773587
-18.101446 -24.320702 -12.097056
-21.396620 -2.907564 6.093431
-0.115308 -24.925564 7.534019
0.551440 -24.279818 6.045147
-9.311983 -27.802038 -11.393983
-9.479026 26.742472 13.494600
-8.759776 25.231737 13.959483
-9.353621 -12.392347 10.912243
-11.443400 -10.692588 10.654345
6.921068 -13.033692 -5.612818
-20.456617 -22.622305 -5.720091
-20.231951 -23.237465 -5.000175
-7.086059 -31.071384 -11.247527
-19.552828 -15.865545 -12.759480
4.149077 16.220879 5.135911
-27.892508 -10.218198 -9.624108
-16.431339 -22.892862 -10.559070
-8.033184 17.122185 -16.430567
7.230658 -12.492599 -6.936327
-22.896664 -12.714277 -14.248969
-18.976908 4.428219 7.894217
2.206229 -17.799273 -6.187070
-30.523054 -21.976641 19.797306
6.503692 -21.602865 8.631245
-18.885897 -33.808289 20.004440
-24.430038 -14.662445 7.516250
-9.534392 -10.453552 11.246481
-11.179024 -12.862638 11.375977
32.184311 -15.792716 3.567031
-3.927009 22.809566 -15.913387
-11.752348 -11.907374 10.120107
13.219765 28.581259 16.316057
3.293478 33.259861 20.809809
-1.610751 34.214027 20.204699
-14.024147 35.982037 -3.637020
8.390829 35.126389 12.801073
5.869273 34.117474 17.162214
-25.281717 -12.591275 -7.189270
-18.469679 31.815693 2.898459
-9.398901 5.016698 -12.518553
-8.126245 4.599180 -12.452535
-10.795510 26.882864 -13.918087
19.087006 -13.314460 -4.155957
-9.196406 -11.274653 9.892035
31.386053 -13.873157 4.931310
-12.234303 13.603106 -10.763227
15.596094 -21.304546 -4.128104
-16.899780 10.277528 -3.352423
-9.993470 -11.369555 10.475744
-13.133721 15.186142 -10.390490
18.666227 -19.528841 -5.005563
11.079770 34.261009 -16.483068
29.441643 -12.843666 5.459126
16.016151 28.792221 15.749361
-10.916151 -14.026879 10.365031
-10.705823 -14.138177 10.051212
-10.973562 -26.875877 6.448702
31.065247 -13.781077 5.079094
16.705042 28.992109 15.628864
9.354297 34.984455 14.607012
7.869959 34.605930 16.591452
-27.936981 -13.017479 -11.770829
17.938505 25.626980 9.926816
17.368156 28.664978 -8.672968
-11.770382 -3.666131 -5.728386
-13.762357 -12.390398 9.172626
17.542219 24.625521 9.466899
-1.096692 15.707045 23.081610
14.038978 17.420097 7.520515
-0.501059 19.813660 14.284695
-7.100781 24.707098 -16.475567
16.052320 -27.137779 6.918122
16.678900 -23.525501 7.881210
-3.168559 -25.540421 -9.786596
-22.885893 -20.604519 7.250387
-19.049377 -25.555265 7.546750
-22.898748 -30.074890 -21.541830
-22.579563 -32.645576 -19.420780
-27.238066 -25.206381 -23.220957
5.954138 31.388311 -20.169537
-22.582588 2.908141 10.602881
19.252308 -12.300439 -2.729499
16.781094 -9.330231 3.388517
9.572608 -6.453050 -5.050698
13.818594 -13.644985 -5.431249
18.872616 -13.113137 -1.298141
-10.281644 11.991521 -5.808157
-9.137143 -32.298023 -10.813911
14.801205 -25.617088 7.046403
-2.620602 -13.629761 -6.628125
-23.619013 -5.360493 -13.963794
-21.045483 -13.303741 10.541349
1.567381 15.597581 -18.279785
2.716377 -23.454937 -1.317677
27.229326 -14.039260 0.951784
-31.308945 -9.085828 14.130175
-9.332599 -21.031784 -5.954490
-14.594747 -20.440313 -0.704562
7.047187 16.177511 -3.397159
-0.610603 19.846186 13.390186
-8.896741 -29.571276 8.237656
7.076307 16.035746 -2.676762
-25.460928 -11.372569 8.029130
-9.441436 -12.301863 8.723788
-9.600031 27.157749 12.729512
-13.327440 -17.687750 2.730153
19.100313 31.004704 6.986012
-14.937353 -15.475066 3.578684
-5.846140 25.544773 17.513870
6.722875 17.044588 -3.470172
19.620935 35.748894 2.579486
-6.097465 33.801891 -14.189759
-21.224403 -28.430136 -11.149118
-18.516893 3.285679 9.244288
13.240780 35.813358 -3.344735
7.541951 18.808781 0.584036
6.531417 -20.720360 9.590343
-14.953771 16.986908 14.503733
-17.832827 -29.490082 -8.161295
-26.215168 -19.886572 -9.753629
-8.624304 -19.105055 7.145229
14.287754 -18.287928 8.469292
-2.877208 27.803040 18.994595
-12.552099 10.158568 11.627947
-5.706399 30.991959 19.183491
19.436338 31.263535 8.271624
12.462130 -14.105875 11.414791
-22.730124 -12.425822 5.762443
-14.782021 2.864700 -7.852592
5.170179 -19.141569 -6.677379
6.708200 -18.443085 -8.786693
-14.362247 1.439130 -7.267581
-15.732862 3.452319 -7.742169
6.303774 -19.136789 -7.080965
-0.857380 -7.416131 14.099649
-22.229254 -21.255640 -7.315289
-14.822807 -24.865217 -10.426888
-29.972918 -29.321592 18.358404
-27.314390 -31.434219 18.258390
-25.638186 -32.364269 17.458300
-30.219059 -28.409311 17.888451
15.920907 -12.770495 -3.050809
8.677097 26.229622 18.890736
9.994537 27.377100 16.310339
3.903484 13.184605 -1.284269
-15.343804 -5.931483 -0.865643
11.984388 -17.050076 10.931961
4.959349 -12.724702 11.787317
3.462693 -12.577826 13.268014
-1.849586 22.666658 20.196400
10.283133 -17.860655 10.276330
25.204565 -13.743649 6.760056
-17.700504 33.815197 -5.754453
0.784820 19.554615 -9.424163
6.879442 35.547588 3.969845
21.774641 -20.840893 8.551518
-13.813993 33.990074 -9.285108
-31.691971 -6.463976 -16.611824
15.485499 -14.093109 7.740892
1.840551 25.275812 21.312555
20.943130 -21.579889 7.311409
30.874710 -19.870342 -0.497670
-28.908709 -19.972561 -15.389558
1.880165 23.197943 -14.363708
0.173044 -3.250424 13.291143
18.212132 -16.445127 9.087337
2.631180 16.145172 -7.881429
19.704504 -16.808552 8.549768
-2.213328 29.739077 -20.496767
12.172792 -5.294133 -0.154052
-30.475603 -19.555061 18.873781
-21.842649 31.431709 -4.091887
-21.659468 -27.685799 -19.521551
1.537481 8.937325 -3.520962
-24.937265 -23.193750 -20.206980
-6.366024 -26.159813 12.480335
-27.941124 -21.552666 -17.599640
-33.379738 -14.535965 16.787474
11.111902 -1.669806 -4.053852
17.478197 -19.312706 8.467928
-16.092987 -30.444237 17.247627
-23.823963 1.850441 -10.787659
12.728630 29.168365 16.277746
-23.488066 -36.266930 26.933187
6.997466 -25.972258 2.670915
-6.110016 1.168688 -11.575215
-17.195246 9.045728 8.910973
-16.665056 4.973619 7.672332
-1.073400 4.680984 -8.390903
-21.920362 -8.289752 5.225421
-3.121851 -25.884323 7.195534
-4.828278 -25.185513 6.150683
-21.975464 -20.727915 -15.089009
-19.063843 -7.991847 2.876285
-18.782486 -25.064453 -14.109743
-6.350533 -29.683369 -8.050203
-18.144772 -22.149792 -12.536038
-18.440874 -21.703737 -12.365017
-4.859139 -19.076488 2.875587
-21.777283 -24.202469 -9.108207
-22.347876 -23.972204 -9.449179
-6.151161 -20.511307 1.441539
-21.749727 -20.693527 -14.690684
-17.094383 -7.531672 3.171083
-4.737628 -19.928185 2.511094
-19.203510 -20.609613 -12.251538
-17.342459 -23.219639 -11.823828
7.063470 31.895645 -19.092293
17.105375 24.694761 -0.730851
-6.891622 -27.928518 -11.148009
-2.562662 21.985798 20.152428
-13.705899 34.439495 8.320526
-12.118051 34.172760 5.008500
-16.954655 -18.106953 -10.582315
11.629822 17.298330 -1.452021
-9.911105 17.151283 20.439884
12.149114 17.942806 -1.903447
-22.606918 -33.976688 23.497314
-30.438498 -25.788637 23.678459
2.420055 7.262508 -4.240085
-2.080894 35.391132 9.934584
12.225092 32.723347 18.202356
-30.056561 -23.597998 21.261208
-6.328644 34.936954 14.638567
-18.622854 -27.678572 14.159780
-24.408400 -21.607967 15.323343
-19.493238 -33.172890 21.431355
-17.153912 25.289196 6.671474
-16.251970 -31.980768 -10.031898
-7.989909 35.647194 -6.298982
3.682619 -14.734025 -3.809298
-30.758493 -24.876463 17.122896
-29.679327 -25.040842 16.789646
3.072216 7.980478 -7.487983
-22.336414 30.470676 0.011277
10.301679 -19.066366 10.386286
3.504644 8.270396 -8.193078
10.831958 17.165594 8.201019
11.855678 -19.463358 9.740036
-14.636771 -3.314849 3.846769
-9.799109 -17.491501 -6.793186
4.664969 14.843737 1.533026
-5.238147 -16.849916 6.545905
-14.263453 -3.748859 1.448893
1.241575 21.955168 -15.137877
-6.130283 -16.327553 5.792599
-32.170303 -17.737122 -19.712038
-12.406418 5.703805 -10.440931
8.360447 -3.798270 11.262657
0.491382 -6.070705 -9.840115
-20.350454 -35.509884 -23.737440
-19.892336 -34.542049 -22.697924
19.704166 31.087709 7.687919
9.637539 20.972490 -8.792872
-6.329460 -28.065298 14.277102
-5.788248 -23.732103 10.587151
19.015450 30.828140 9.706874
-15.878602 -0.675286 -2.652703
10.560102 27.911968 19.482239
0.696665 5.365521 -10.014944
14.726295 30.615637 15.626911
8.291293 28.716684 19.603895
-5.974278 10.321360 14.668859
10.670933 25.370888 14.650387
11.055237 29.686216 20.132639
7.049259 24.306786 19.012093
14.514756 27.183485 15.528218
-12.895026 -33.740849 19.993113
4.440153 31.259411 -20.712076
-0.688978 22.329031 11.689067
16.522520 30.693201 -9.004935
13.997634 22.224630 11.033369
-30.791073 -15.370322 18.705286
0.299931 21.587118 14.683136
-0.267440 16.106430 -18.292217
13.692708 -21.284443 9.047236
1.607400 10.445933 -11.175714
7.731161 -25.611694 -0.169279
8.951519 36.657833 -7.171628
5.075942 8.747887 7.762536
13.436775 -19.551628 -6.712674
-6.177994 1.889435 15.736306
-8.863228 -19.670933 3.231774
-11.761782 -9.634334 -8.487160
-12.311188 -19.487213 1.037218
26.538486 -14.798993 6.780167
24.922153 -14.253133 -4.888973
25.261606 -14.137403 -4.544036
-6.828254 -31.401712 13.152788
1.311676 25.700806 21.695082
-18.012899 34.391216 -4.673783
-25.104143 -35.230377 20.887426
-16.861452 -4.550288 -8.319124
-22.879429 -35.337589 18.632090
-28.000189 -26.291145 22.873070
14.294424 27.454868 16.420420
-2.356870 33.960011 -19.864674
-12.138323 33.231113 -10.602000
-11.277392 28.772402 -16.364016
-12.853336 -26.379877 5.570896
-7.025166 29.642099 16.750717
-6.959428 24.977936 -15.721557
-7.856932 -1.565650 15.838016
8.853768 -10.074851 9.905100
-26.600607 -18.201979 17.371338
-6.995156 16.278795 -16.192350
-9.703832 -29.134451 -7.459942
-7.947307 -20.854670 0.964714
3.005141 15.319199 -1.349553
6.667150 38.280697 -14.245193
-13.158687 -34.170090 -12.731277
-17.980700 2.204915 -8.553370
24.156076 -16.636080 7.599599
-13.121772 35.781445 -7.053086
-12.656305 -25.078011 -2.063118
-15.028793 35.261002 -5.258840
-20.357700 0.845792 -6.739820
24.073685 -7.343196 -2.620567
-14.507777 34.425999 -4.025842
13.824870 22.467655 -5.411392
-20.450361 3.470951 -4.629762
-14.138453 2.801530 -11.457079
-12.299763 34.619221 -7.370386
-17.731485 3.046873 -7.705849
-14.524266 3.009251 -10.562456
-14.367512 17.498911 -10.465720
-2.655647 -2.049603 16.085876
17.291815 -21.106215 -4.299411
-17.665682 14.108755 -4.668775
-16.526075 -11.796675 -0.961410
-16.888428 -32.586887 -21.813179
10.971622 1.287389 -0.956765
11.570736 -12.140570 10.036573
3.636760 1.891628 9.279350
3.762121 -0.347037 11.190220
3.650398 -0.771421 10.785592
3.385334 1.160533 9.898704
-8.833480 5.339633 -12.072049
-2.745923 -8.884785 12.561426
-1.915004 5.927992 -12.861136
14.443876 -27.194073 -4.045943
11.336720 -4.779667 -4.463638
-15.884579 26.418743 -10.247348
23.912933 -15.045810 3.658090
25.854324 -18.488758 6.582641
-0.951388 21.895700 -8.894845
25.372442 -14.304217 2.027763
-2.901986 -25.874006 9.213717
19.460047 34.370628 4.633573
9.490099 4.210846 0.469151
-6.851715 5.246727 16.595051
-19.293507 -5.187935 3.862520
-10.942273 -31.405167 -16.390015
-24.568150 -4.639595 8.662939
-2.155693 -22.119427 4.034958
-11.176617 -34.235935 -13.271120
-9.954486 34.965691 -7.772067
28.785950 -13.559335 1.888299
25.896957 -13.316782 3.733089
-23.269899 -28.945349 -21.627230
-5.991932 -5.052504 -10.133225
-5.654411 -4.251375 -10.668719
-16.866316 -36.463467 -22.282339
-5.804619 -3.502513 -10.870330
24.494646 -14.163167 4.760551
10.162062 -15.556618 10.736660
9.887032 -16.342463 11.680102
-8.094988 -19.461414 -6.174741
6.173263 29.516321 -13.359596
6.296019 12.903700 3.215935
-14.083366 5.919220 -6.409561
8.093770 -16.780159 -7.354069
5.053226 17.440491 3.807254
6.266331 16.836418 5.999146
7.875950 11.097511 1.885674
20.188639 30.830328 -7.546202
5.326887 16.311970 0.940249
3.726101 12.993406 -1.863796
5.643601 14.211900 -4.218256
-5.370670 12.723588 20.527132
-9.522036 12.358462 18.697445
0.847626 23.829773 -8.537000
-15.747453 -31.971216 -9.947151
6.261145 11.653007 -5.613922
0.279094 17.304260 22.548788
-6.217201 11.700557 19.714005
12.547874 17.264156 6.269235
-18.912088 -9.678809 -10.712221
-16.544172 -31.572365 -10.086114
-18.715652 -9.356707 -10.267711
8.031725 -3.763521 13.113871
4.739325 14.753236 12.229280
-27.077299 -33.275654 19.448368
-26.119053 -23.543268 17.807060
-22.373079 -34.062347 14.741805
17.678097 -24.621168 2.869383
-20.345764 -34.458965 13.045890
-21.737152 -33.589966 14.286804
17.004221 -24.458281 3.906664
-28.496901 -32.898724 19.717649
12.837644 21.797550 11.856310
-29.368429 -30.697031 19.075317
-16.933058 32.109470 -10.218970
-26.105898 -14.506917 -17.473333
13.539455 26.116379 15.187730
-21.296064 -35.808590 16.537508
3.236005 18.553867 -15.356441
-20.798410 -32.567657 11.967282
12.279720 31.274883 19.134527
29.235764 -12.514958 3.860867
-0.482164 4.534252 -5.058233
-17.146725 -26.178324 6.831407
9.226183 -3.486438 -4.791898
-2.635766 -12.785405 12.289761
2.541970 20.402937 -12.588722
-21.465170 -29.743929 10.436559
-6.961199 36.056198 -3.969896
-18.987743 27.597181 5.483548
2.741517 36.591835 -5.699155
-16.898161 29.055418 3.984061
-21.924423 20.528749 -0.679507
17.831587 35.443947 9.038747
2.470360 21.920208 8.381113
6.637887 35.746151 -2.383427
-21.453241 -30.602154 10.588896
-17.965595 9.716089 5.306517
-27.538694 -32.638836 20.234013
-19.749041 -30.921879 11.499279
-12.332570 26.124029 -8.666168
-13.644957 9.799231 10.132921
3.808099 10.321989 -5.999488
-9.137011 34.189030 12.393726
-8.807196 -31.769381 -15.552929
12.236274 -3.533597 8.176901
12.153783 -1.380160 5.952899
13.051253 -7.340750 8.227386
-23.122486 -34.948639 15.398077
12.400049 -2.234765 2.644968
-22.146790 -34.445137 15.307949
-8.223796 34.240826 5.269020
32.809151 -16.053883 4.271718
20.179445 33.240368 -7.707301
31.530958 -15.698131 3.406164
-8.533569 34.056232 3.940244
-9.458529 34.334110 3.121377
10.357123 -10.801233 -5.446127
-11.271331 35.279743 0.254640
-21.748968 -22.094498 -16.188496
-17.054359 -26.619806 -15.116776
-18.770393 29.044062 4.736374
-21.566135 -25.540930 -10.860704
-9.752075 19.232151 -14.795969
-3.627811 -26.399406 7.599066
0.063072 -22.004631 8.817924
1.208360 -21.847250 8.120918
-8.245563 -23.061522 -6.114357
0.066116 21.684072 10.338884
14.721362 19.234257 0.258873
-34.895416 -14.595654 19.554285
3.501298 16.107403 12.799369
4.942008 25.627823 21.151777
-25.522932 -29.922850 13.788404
17.871866 -24.419874 0.065342
12.731051 -3.811618 -4.785550
-9.118144 26.197340 12.708066
-20.973360 -16.338093 5.602780
-13.558787 -23.023439 5.082969
-5.718904 34.987099 6.853463
-22.069246 -4.584014 -13.332909
-7.093330 35.430702 5.724652
11.486732 34.829910 14.629519
6.035545 25.249420 -13.534660
-12.976364 34.429108 -0.092277
5.845838 33.910973 18.060274
-6.926713 11.347561 19.982485
16.838024 37.010281 -1.172761
-20.336994 -9.583830 -10.963778
-14.931042 34.634228 -3.132236
24.455429 -12.804226 6.248822
25.034414 -14.204471 6.863705
3.907153 36.218147 -1.984909
13.840955 35.886017 7.251717
21.778374 -13.322814 7.009619
-26.061209 -5.806385 9.520615
-22.263288 28.475052 0.450796
22.251810 -13.968271 6.991517
-23.110420 -4.715673 7.610069
-0.289631 34.106106 19.350185
-3.274605 -25.822706 1.207928
-9.800174 -26.179182 -3.967003
21.154198 -15.028387 7.354134
-12.654028 0.178006 -11.484388
-16.891869 -0.552654 -3.602985
-11.005104 34.128830 11.466898
-17.470636 27.262550 5.251204
13.025981 35.504925 5.860840
-24.220016 -3.320185 8.075697
-2.689420 -25.870173 10.245068
-6.596519 30.883877 18.956261
-1.907324 34.683979 19.609066
-7.539247 -23.177851 -7.034109
-24.810213 -3.500600 9.565422
0.920489 -24.116365 1.139705
17.059450 26.071882 -7.894987
-22.924969 27.283815 0.961850
0.049849 22.655928 -9.262368
18.974806 -13.731965 8.424450
-23.551897 -33.902588 24.814232
20.271620 -12.928533 6.831962
-17.185274 -22.385292 -3.595814
12.903967 36.900295 -10.557265
-20.289026 -20.105005 -3.755298
8.248569 16.709967 8.800447
4.292556 18.701790 -1.157132
5.459736 19.702389 0.720114
-14.687763 -24.223415 5.452004
-9.710752 33.448154 8.264456
-15.157348 33.709053 4.072930
24.114552 -6.852858 4.816615
-13.258116 24.155210 13.283934
6.622099 23.060671 -6.563531
5.735419 16.729342 11.738137
-15.981244 3.030315 5.840655
-1.385629 3.601843 -9.328010
-0.425902 3.438087 -5.051502
-0.228361 5.983187 -7.353972
-16.723417 -26.070024 -12.630711
-12.276609 -20.317930 7.653007
-0.484965 12.353520 15.706618
-17.087841 -4.019946 -7.907507
0.189335 18.188448 -5.992472
2.826182 16.362398 12.624452
1.263715 15.102879 11.523575
0.388295 12.472732 -13.218710
-16.175760 34.195480 -1.052048
13.100399 -23.216204 6.934955
9.011577 -5.506255 -6.799023
-9.836576 27.565123 14.527495
-7.195862 35.122425 -7.278081
7.019165 34.565765 11.679723
4.843882 35.001865 15.488382
7.163726 34.939053 11.105127
3.844221 34.848660 14.315837
-5.327822 7.678805 15.938801
-21.645859 13.572183 3.760503
4.489586 23.564629 -12.943486
5.608164 -8.144713 -8.066688
13.132591 30.072132 18.741596
6.676065 -23.044516 -5.035503
-12.878269 4.878506 -11.922758
-24.202791 0.994178 11.814690
-13.904327 34.959988 -7.043840
23.867802 -10.236894 -1.041427
18.292709 -22.617292 7.343882
-0.202200 20.531017 -7.394823
6.484706 -23.356623 -4.704141
-7.472518 8.055696 -12.059118
-12.369617 2.889355 -11.794202
5.307345 -24.752827 1.158749
8.838569 -26.423107 -0.447678
-15.892195 -35.950714 13.880957
7.652537 -24.572536 0.850447
-0.722835 16.449915 12.540830
10.323277 29.395550 -13.129642
20.866222 26.866301 -2.872297
6.984424 25.685883 -10.495140
13.454609 24.385069 12.098861
-21.694986 -24.535332 -15.079632
-22.274139 -22.877129 -15.685264
-4.438644 -23.036509 5.331692
-20.769003 -6.270980 5.196559
-3.449620 -23.286793 3.219817
-23.197533 -12.755900 12.338581
2.409676 17.777113 11.777948
10.952971 26.538605 -11.440960
-19.196964 -27.198694 13.646603
10.710990 25.878304 15.457684
-23.883602 -21.924486 13.451859
7.866546 26.372049 18.538118
-28.420977 -15.132099 -12.326895
-31.243202 -27.789331 23.187305
7.252633 1.181787 -2.131024
-0.192270 9.627892 15.956615
-11.624556 -33.458488 -19.099812
-10.895099 -6.902342 8.553431
13.547235 24.537516 -11.085256
-4.664284 -13.122519 8.171820
15.367667 22.713274 -9.740234
-9.974680 7.629063 13.915291
-26.583555 -17.406504 -19.355438
-10.981057 7.606625 13.494843
11.103887 27.359999 -10.931845
1.440475 -19.974188 -6.852082
-14.565355 -19.186356 9.045223
-20.393709 -32.422867 -15.048331
-23.667721 -9.779249 -7.162015
-14.681684 -10.132964 -0.610345
-14.946107 -12.184565 0.023684
-18.630569 3.480213 -7.219671
-21.966578 -11.063047 -4.817377
-23.397459 -9.831554 -4.693153
-18.631525 -15.142761 -2.583614
-24.975302 -11.642365 13.272000
-6.269881 -22.073536 3.711289
-9.370913 -28.239954 13.660899
-9.260217 -30.513981 9.361931
-2.448973 -21.841988 2.740038
-18.132011 -9.197406 3.090597
-4.787977 33.256847 -17.364672
-16.811913 -13.070032 -1.254789
-18.607832 -2.715324 4.780245
-2.295970 -3.395843 -11.309106
-19.047028 -9.641492 -2.969424
-9.617622 -28.743624 8.037807
-10.189013 -22.332960 -0.637736
14.278151 17.624126 -0.339259
-18.904423 -9.797240 2.865992
-2.402352 -18.957851 9.179937
2.022860 -5.218687 -8.298016
-16.383282 -0.887167 5.875320
-17.296623 -6.315692 8.672791
1.167113 -3.539250 -9.202941
14.004839 19.457264 -1.387092
1.003697 26.714716 22.838219
0.716498 24.850922 18.545330
-3.144735 -24.161785 5.215940
-0.251512 23.742746 17.573492
0.767756 -24.365042 2.643950
-22.060843 -5.289302 5.251297
-24.561800 -20.059830 9.232025
24.603462 -5.954700 -1.823227
-8.449961 3.439397 -12.297956
-8.854336 -24.684212 -2.518273
-2.655384 12.208041 -17.038317
14.116494 -22.466660 5.935965
5.858500 18.821510 5.182630
7.911182 19.044554 4.514749
4.708723 19.308292 2.557046
12.697881 -25.240219 2.950602
17.735931 -25.121620 8.373278
2.087844 18.197006 -16.765896
-29.918819 -14.892336 -17.380604
13.076204 -19.955067 9.029939
4.127762 10.644474 12.789523
-27.269850 -22.211882 13.087948
-29.406418 -26.421242 16.977900
-12.196272 -32.921429 -9.668165
18.231180 -25.970381 7.503153
16.991837 -25.464399 8.097196
15.583908 25.061226 11.985320
17.285301 -23.332924 8.339649
-17.705044 9.924360 7.288311
-8.512906 -4.689984 12.987155
14.959661 -22.352697 7.445807
-0.277467 11.016823 -11.357100
-25.639875 -1.910261 -10.188116
10.597625 -22.312424 7.771310
0.428672 6.906857 -12.332001
-22.652914 -22.252296 -8.073279
-14.003550 34.128025 1.692410
6.256311 -13.576457 -7.248343
-13.497249 6.736988 -7.625845
-1.886585 -25.098911 -4.613512
23.870672 -6.795867 5.344146
-11.748517 -25.232624 5.741817
-0.802212 4.223676 -8.131891
-11.283402 19.437170 -11.847722
1.069460 10.620111 -11.283358
13.523252 -21.284796 8.654422
6.696898 -22.904154 -5.416868
-9.937262 32.674801 17.132797
20.014175 -22.991615 7.772239
16.470991 -21.117121 7.562494
19.006929 -23.733795 7.488201
10.196182 21.483713 13.322088
14.945649 -16.466208 9.747943
-3.085628 -26.430382 9.489998
-12.068074 33.617737 -9.894433
-11.375775 26.825840 -15.974897
13.146799 29.244846 16.856066
-18.652700 29.034578 -7.547673
-11.019170 29.717176 -14.514907
13.895202 30.274988 18.982731
-16.428183 27.247034 -7.903900
0.735567 8.010847 -11.443388
-24.286644 -12.478385 -16.365284
11.750428 -21.549501 9.078708
-19.234463 -33.805210 23.083334
11.736187 -3.680181 6.877940
11.980031 -4.973532 7.221581
11.778971 -3.299704 4.172501
12.370576 -6.782176 7.556026
-13.224122 25.812286 -7.684999
12.592239 -0.211760 5.781291
-24.944286 -15.612288 8.473108
-17.687397 26.596735 4.684443
19.419872 30.846661 -8.034185
18.158842 36.866306 3.225728
11.399340 -0.612195 4.701517
-0.931700 -7.302112 13.315222
2.107440 -10.194961 13.531919
-24.692825 -11.072257 -15.321059
-13.527248 -27.546774 -11.104800
-16.714960 -27.336439 -6.446201
-14.312514 5.036615 -7.869520
-26.296076 -31.742435 17.180059
-15.244986 -27.916569 -13.996705
-27.031305 -32.678978 16.859764
-14.471588 -27.996956 -11.671076
2.828620 -12.923333 -7.135757
-28.631355 -29.946524 17.506611
-7.406395 -14.883114 9.592609
17.921154 24.717888 4.252536
30.403719 -11.279737 3.259030
-18.162361 3.136389 -0.110062
-5.716790 3.490947 16.561815
5.827347 34.654514 16.088591
9.481858 34.796116 13.591048
3.823626 9.658477 14.074679
-19.958366 -32.403130 12.304171
-13.738697 12.054780 -6.132069
15.163806 -15.906484 -5.556267
-27.824699 -30.925602 22.877121
16.125397 -8.493120 1.735756
15.084551 -15.541044 -5.280909
5.123105 -8.310499 -8.254469
-12.114314 8.636766 -8.627126
-26.096443 -4.857454 10.571802
15.487077 -8.271135 1.944043
-0.145629 -11.418165 13.779812
5.213336 12.224762 12.850104
-13.343636 10.579446 -5.566236
-2.382245 35.304394 -17.399069
-14.199435 12.539510 -6.625316
-1.195218 -13.986599 12.693515
-12.860963 8.940127 -8.643545
-31.307320 -5.181809 15.200145
-18.431570 27.179888 4.706294
18.784037 -12.196003 -4.179798
-14.737118 9.889654 -4.680583
-29.464964 -30.660034 19.974152
19.390402 -24.779186 0.760497
14.387255 -24.748653 5.750554
-5.751336 21.289801 18.274876
16.743595 -26.609146 6.127087
13.981277 -24.217680 5.740580
-1.986138 10.204305 -13.260071
-12.254539 30.963818 15.197351
-6.392037 1.192361 16.951914
4.630789 36.893486 -4.836446
2.090969 -8.187153 14.873572
-5.878577 16.050816 21.787544
1.978448 11.419240 19.270826
-5.663953 -11.972380 -7.135456
-14.858381 17.176546 12.124929
9.209040 16.185730 -3.835844
5.241489 13.405283 -4.678856
-13.171725 5.594799 -10.956943
10.942587 18.657724 -6.012834
-29.005032 -3.518911 11.937414
1.742001 6.736557 -4.336992
9.687948 -0.877205 -3.196062
14.092218 18.624783 -3.954771
-5.960340 35.485672 -14.197096
7.687222 -23.868391 -4.057826
-14.896494 22.668125 13.108209
10.560938 18.984472 -7.555542
-23.312607 -28.149433 -22.054703
5.511819 23.686792 -8.139586
-14.686928 24.371838 13.216984
11.711373 19.402687 -6.352527
30.355560 -11.123248 3.875596
15.448478 20.630079 -5.167830
-22.203175 -16.428434 -5.741237
-25.610708 -16.446600 -8.621853
-16.951689 -27.066597 -5.447099
4.544813 22.831396 -10.114319
-23.336519 -16.727886 -7.118670
15.243516 19.874771 -4.155022
-17.622066 -5.643114 3.783812
28.395231 -15.838001 5.803728
-30.253193 -7.771694 -18.780155
11.127551 20.086010 -9.549629
28.632595 -13.184197 3.922005
11.936610 36.135239 -6.978561
12.639686 19.541979 -6.844257
-8.692280 -27.692619 -11.606001
-1.346348 -23.320179 12.069158
-25.760048 -2.456650 12.103739
-3.846761 -23.648008 11.826780
-22.407059 -16.197296 6.521333
-0.972870 -24.845037 -6.005294
24.564764 -4.123971 2.721626
5.483373 19.777328 11.202791
-1.474512 -21.991556 11.020608
16.182646 35.813210 6.179414
8.255345 7.068632 5.529246
21.677893 -11.105418 1.572467
8.379196 15.437734 -3.545945
7.418016 25.590235 -11.965564
-20.875589 -9.988592 -3.497285
-1.457175 -24.303312 9.205652
6.203067 15.253438 -8.900502
-16.000870 14.078813 12.774345
23.029667 -4.230720 0.272469
-15.959411 2.647541 5.328000
-31.968149 -17.096361 19.034637
-22.430931 -3.336602 6.652331
-0.796707 -25.023386 8.019439
-16.688597 22.620377 11.231135
0.321654 -23.377579 9.233358
7.923134 34.970840 -18.762632
-22.273594 -28.789362 -19.795715
2.346205 31.292376 -18.621780
-26.501663 -28.298803 -22.566824
-7.754269 -14.067171 9.684171
19.455824 -26.240534 -4.221665
-11.243217 -16.663506 7.866813
25.729387 -5.516697 4.061223
26.542616 -5.201826 3.274903
-9.246707 -13.784897 9.702899
16.052824 23.944008 -4.441761
-1.749756 27.785105 21.054308
-2.288005 36.430275 -10.824193
-2.030172 26.797001 21.353020
13.043967 -13.975495 10.503531
-11.942292 32.029289 16.308468
-4.206761 -23.795561 -0.985219
18.786140 29.681589 13.459292
-9.249308 33.989414 8.271737
-3.717149 -22.788334 -1.925043
