ply
format ascii 1.0
element vertex 1591
property float x
property float y
property float z
end_header
-15.609530 15.722041 10.017216
-10.908130 14.452709 6.300145
11.963715 -34.827606 -13.759811
-15.338945 16.089355 10.363781
-11.859082 16.167459 7.604396
16.205128 -31.789150 -9.945849
14.630424 -27.974333 -10.415236
2.094099 -22.704590 -2.765258
2.539817 -17.947802 -14.621229
0.483139 -17.242559 -14.873159
-0.008292 -16.523975 -14.167731
1.347674 -17.928270 -14.848754
4.033368 -17.076380 -10.707864
-16.956675 14.076767 10.707541
13.739368 1.418476 10.516047
-0.969425 -32.054012 -1.147128
-1.948917 -32.497677 -0.808100
18.751694 -35.723515 -4.816868
-15.808798 9.308781 4.051264
-6.695730 13.289597 0.491513
9.904108 4.287755 -10.753995
10.624940 -11.482618 -13.030765
2.157200 -34.137470 -8.530241
-8.950709 -34.333637 2.964805
-10.115671 -34.387791 2.818855
-12.227371 17.490011 8.976562
-1.188281 21.179951 -6.883447
-7.420974 14.526052 9.711664
-9.343344 -32.185459 0.272656
-8.494936 -31.943167 0.904254
-7.212341 -34.262825 -16.406500
-5.204119 11.496548 -2.159069
13.357346 7.474463 -9.666942
6.302817 -37.858311 1.063180
-9.843863 7.836746 13.891851
9.159732 -37.188423 -12.070848
-15.103035 15.648909 16.740076
4.046878 -35.955933 -2.071075
-13.966060 2.904613 13.472380
-0.033606 17.946703 12.262444
2.679513 -32.268784 -10.630644
7.951085 -35.965820 -12.230206
0.247022 -10.499613 -15.525896
10.418609 -37.314213 -10.287356
8.173576 -22.885401 1.223010
0.105693 -30.235867 -13.731447
-10.562588 -34.536442 0.448087
-8.730985 -19.084435 -11.214521
12.654083 1.796907 -3.107700
-5.306381 -36.894798 2.387900
-11.877097 10.413766 0.972490
7.639025 -2.949353 -14.798855
1.010376 25.195793 7.049043
16.387564 -21.841166 -3.491248
-11.298830 -35.895596 -11.241817
-12.211648 -33.828701 -4.109324
-15.991217 16.247654 15.043811
-2.423234 15.599672 -10.763634
-15.387141 19.267986 11.591783
-11.089047 -34.271461 -10.764447
14.507066 -23.043585 -10.333785
12.871430 -2.914097 -9.445366
-11.498339 -31.351215 -7.088418
-2.055165 -36.289558 2.518282
11.040388 -6.915964 -13.507698
13.003561 -6.944328 -11.831467
15.957766 -28.771585 -1.218360
-13.449577 18.361574 16.596558
4.443135 -27.880125 -5.112411
6.395944 -2.948206 2.407497
10.141824 13.915434 -1.815174
14.733417 -31.602098 3.413587
-0.575365 26.077625 -10.951017
1.256893 -33.186306 -11.750201
1.560539 -31.841269 -12.687041
16.223032 3.323680 9.671185
5.908197 -31.493942 -8.898827
-6.516364 -9.898878 -12.200706
7.648528 -25.755962 0.238412
9.366503 -25.359941 -12.336154
-9.093192 19.557142 13.058855
6.566305 2.177299 1.271475
-10.219285 -26.986540 -10.415095
-8.100163 -35.647953 -16.790125
-8.261023 -30.222647 -0.681554
8.153611 -16.835243 -12.832741
5.407088 -36.990192 1.976437
-9.801795 8.843132 1.968175
-4.773063 -20.295446 -14.805499
5.529580 -31.615019 0.085394
-2.950927 -10.743435 -0.168338
6.505141 -22.998941 1.071401
9.601925 -33.596733 -13.154981
-11.793362 -35.711510 2.182017
15.412495 -0.726975 13.410309
-2.075824 25.153116 -7.265598
3.303050 -17.808786 -1.598941
-5.933307 -0.326992 -7.246116
-3.351808 23.583904 -6.340398
13.844254 5.252186 0.016945
-10.422121 -31.714920 -2.461157
9.570827 -7.002632 -16.043165
-16.915003 8.682539 5.941500
-11.431494 9.688084 -0.556101
5.951406 -20.050184 -10.756695
11.374022 4.055100 0.332632
-5.896219 -36.590561 -2.092708
-2.793220 -37.005230 -4.344680
-4.866475 -11.913881 -0.425782
-1.092195 -37.275986 -5.044353
-6.410157 -16.669703 -13.042465
3.609989 1.798913 -13.634622
0.358095 18.414942 9.337347
4.348402 35.058884 -2.063798
10.830424 -35.046986 -14.198865
14.966063 -16.115549 -8.649791
-2.384977 25.912111 -2.938020
-2.888974 23.683498 -1.078131
-1.853925 20.939259 2.807707
16.697359 6.176007 -2.644716
-3.491353 25.634567 -6.527827
13.214937 10.097873 -7.300340
14.299585 7.066002 -5.403611
2.883010 25.788031 -12.951639
-17.883120 12.476107 8.096687
10.580514 4.658060 0.838463
-7.724319 -36.857513 -10.842822
-1.418680 -13.593291 -14.314631
-11.744795 -36.771927 -5.879460
13.816501 8.061600 -5.685036
-11.058530 19.846397 8.398214
9.627522 -37.543957 -13.936468
1.373732 19.266953 0.442302
12.861747 -13.242177 -0.435523
14.230951 -8.032057 -9.853849
-15.320843 19.677614 11.765611
-11.047910 -34.190517 -10.021980
-6.559444 -21.393757 -15.234387
-2.766248 -24.637011 -14.300825
-15.103011 13.295496 11.167006
-7.973882 13.980243 10.565267
-16.456385 17.101202 15.536759
14.638824 7.509343 -6.043418
8.586103 11.135451 -0.511008
5.152705 -17.206003 -11.379939
-7.396273 11.112666 -0.255502
4.950770 -36.849533 -1.958265
-6.384861 11.058950 -0.842369
-2.984910 -14.667390 -0.605514
5.365140 -21.926153 -0.776520
-15.997897 7.443664 5.667569
-7.483328 -33.746780 -16.091816
-12.658303 19.473270 13.875747
-8.481643 -32.792038 -15.200747
-6.251012 12.764129 -1.859992
-9.963726 -35.380524 -13.828072
-9.112857 8.531484 -0.112641
-1.934294 -12.566495 0.582700
16.772095 -2.060308 7.477336
-9.560980 -36.240540 -15.297299
15.700567 -0.112200 2.956004
-10.158722 9.585686 -0.543900
9.726109 14.511887 -1.678171
6.501643 33.709923 -2.868009
12.433142 9.872391 0.185259
8.166326 15.791614 -0.998017
13.302025 9.535970 -0.975441
14.226483 -31.581085 -12.005033
10.837831 11.135794 -0.379601
-4.725122 3.249025 -10.677348
14.076928 -21.156006 0.911996
10.442574 11.688684 -0.546599
5.338942 1.335613 -13.612307
-12.813219 3.018897 9.755321
-0.303521 8.021769 -13.426957
13.380967 -2.022208 13.181702
-2.747982 8.341347 -11.859206
-17.171688 15.246916 9.632504
-1.128699 9.155952 -12.248383
-0.657237 19.671041 4.746819
-14.129944 19.493464 10.831635
11.839181 -22.045486 0.736137
2.786719 12.299983 -11.849504
-5.137207 -2.628455 -0.895349
3.853110 16.300097 -12.304238
11.797427 28.550554 -6.270493
-10.123567 15.331850 3.460121
12.192259 11.436909 -1.208254
-1.630875 22.261473 1.415786
-2.058282 20.701815 3.260306
14.111843 -18.598234 -0.481772
-1.908075 -4.879478 1.281896
-6.939104 -27.417158 -0.863435
-2.960555 -1.665573 0.693723
3.071751 15.524993 -11.935759
-9.655994 7.551895 9.224475
-16.216707 10.135348 3.145369
-15.753582 9.241277 2.738713
11.898226 -4.767963 -13.097425
-9.941098 9.735330 9.824607
13.195712 3.268877 9.256795
7.789080 -13.744737 -13.156837
-7.147989 -24.114969 -0.689134
4.581029 30.807625 1.285567
-0.691661 -22.533293 -1.420555
17.040030 -27.283718 -6.703260
-9.552649 -28.627399 -2.253255
-0.115601 -37.138218 -13.988570
-8.325731 -25.068148 -1.677688
-9.639432 -29.045546 -3.060752
-9.807194 -23.944777 -8.649655
-4.584165 -37.785858 -17.412977
9.363541 -36.412807 -4.717116
7.106396 -37.345463 -5.848807
12.906731 -5.581192 -2.633035
-6.479115 -16.039291 -12.201554
-6.315333 -3.800869 -9.796206
-9.367454 -27.919205 -2.540471
7.696748 17.106194 -1.468797
17.181568 -27.490843 -6.957464
-3.834411 -21.183538 -0.907947
-6.553092 -16.037470 -12.132235
18.024921 3.497613 3.300176
-2.812213 33.298866 -6.586095
-8.578712 -19.586027 -3.319165
-15.804068 3.807970 8.231250
-7.217919 -8.406698 -6.120242
-7.766662 -8.532921 -5.873239
17.597532 -34.400826 -7.312483
-9.380041 -20.815214 -9.429762
-3.341768 -20.962606 -1.167810
17.546616 4.655383 3.500824
9.735628 -30.387815 2.621930
6.312994 16.338171 -11.641639
-3.035621 -6.074961 -14.988647
-12.789949 16.132351 7.619636
-0.114610 -36.813774 -14.658228
4.113333 -8.257113 2.028581
-6.090485 -16.259729 -1.502957
2.345662 -11.803105 -14.864296
2.428057 24.477314 6.236790
5.019122 24.744473 4.001443
1.111159 17.142256 10.946720
1.512070 35.815865 -5.466732
13.506309 -14.818774 -0.629012
15.354551 -18.728235 -9.423060
-14.274271 2.071840 12.108912
12.010583 13.171578 -1.500532
15.109947 -28.876432 0.436270
-0.349327 27.490742 -0.091677
-15.015284 2.390851 11.480268
-1.637529 26.909309 -0.804973
-0.510631 27.497086 0.007430
-1.216026 27.932419 0.522862
-1.669796 26.610424 -0.961350
1.086455 8.504364 0.273772
-2.226704 20.187738 12.425446
-1.366261 21.109354 12.220126
2.325603 13.075644 0.471609
11.031128 22.716339 -3.116723
-3.186914 -4.057327 -13.882479
-1.639081 26.678631 -0.935288
2.965582 25.532095 4.090023
1.068152 26.130989 2.270266
-2.858419 25.248592 -1.450747
0.640892 26.026251 1.161481
-2.796670 26.449100 -1.350373
-5.164936 0.457681 -2.234759
0.771556 25.931461 0.961543
-0.737220 26.628542 0.724101
7.930586 13.496762 -0.742451
1.974007 27.124287 2.811304
1.067868 26.447895 2.089602
2.555074 26.535479 4.237397
2.449877 25.870453 3.223247
-2.253509 25.393784 -0.894450
-2.328498 22.456797 2.654881
0.520090 9.911139 -13.113449
11.546888 2.618662 1.280201
-13.167504 16.520718 5.457534
16.408451 6.400309 -4.016704
-0.453780 12.623941 -13.347953
14.409344 10.075601 0.527212
-5.249873 -27.301678 -15.103971
5.432074 18.998508 -1.382955
15.206077 -22.365011 -2.351542
-2.314586 29.560139 -6.888330
15.328118 -22.029324 -2.506892
-3.042991 -6.279833 0.408773
16.199471 -22.116787 -3.352349
-8.161036 -4.621552 -5.013119
-7.590414 12.229953 -7.782793
6.624931 28.640865 1.152085
-2.635805 -34.651367 2.735419
10.419212 29.141953 -2.001169
-1.806288 -17.642708 -14.727403
3.543074 18.473541 0.936925
12.914702 -17.968094 -0.094422
1.202303 18.763552 5.099676
-16.169235 11.382049 3.162410
2.543878 -7.404632 3.568447
7.187350 -29.585136 -10.802847
-0.344239 -6.358845 0.955632
-1.228019 19.163136 10.609593
10.440359 15.517667 -10.064303
7.761882 -36.937557 -3.869289
-1.983122 12.776572 -12.957028
11.837040 5.743485 -1.435672
-2.848235 -31.059736 0.013560
13.036866 5.829161 -2.653221
13.407793 -2.568428 -11.550720
6.637143 33.411156 -2.028018
10.762384 -3.418416 -13.609513
-2.690991 21.231781 -0.100104
-10.627197 16.535948 17.326632
10.782383 20.816319 -7.278564
15.021419 0.878741 3.153682
8.706779 -36.774834 0.696689
6.658933 -36.814743 2.160920
5.366715 -17.249720 0.560470
0.014796 -13.615058 0.518638
15.300988 5.482535 -2.499094
-8.902386 -17.898993 -11.520885
-12.962934 2.607363 12.980134
2.305415 -34.641563 -10.182248
1.414326 -9.839997 -15.541017
-5.310018 -36.701099 1.677960
3.298141 -26.237314 -5.026050
-8.159058 -20.893419 -13.795978
9.365322 -36.878937 -13.519013
-13.500421 15.428809 17.419693
7.971214 -37.001099 -11.517734
-3.491051 -37.209221 -8.695716
-9.801170 -37.526707 -2.579698
10.824101 -27.304323 -12.924697
-0.009165 -27.913235 -13.745119
-7.377391 9.409624 -0.439050
3.489421 -19.799734 -1.737238
3.765652 -20.750139 -1.702199
-3.112507 -15.474142 -0.320678
-8.962427 8.806696 -1.159174
-8.066161 -14.646626 -7.408696
4.825385 -27.718607 -7.363180
-9.204951 8.650929 -1.259030
15.665964 -3.704706 6.827450
-9.025459 -34.724388 -15.811216
-9.468800 -14.162261 -7.591091
-8.358685 -14.115784 -7.991587
-0.154693 -14.504615 0.684918
16.717587 -2.450520 6.615930
5.837821 -28.746269 -8.910768
17.357853 -2.129844 6.627944
16.244045 -3.184943 5.775079
6.054152 -19.643528 0.810804
16.922485 -2.089975 6.587812
5.438079 -20.091845 -0.100761
17.601030 5.300571 -1.913846
6.031998 -29.453558 -9.173371
5.217107 -28.953672 -8.726744
8.266847 -21.523104 2.463515
16.771820 1.853213 2.334907
-13.306972 5.276390 14.050545
8.753023 -37.359600 -12.501371
14.553216 -24.346186 -11.476542
15.802894 13.358545 -4.792315
2.211473 -0.381514 -14.218457
-10.126421 13.064903 14.428624
12.507241 12.685637 -9.097918
-9.042637 -32.554844 0.127502
-7.987435 -36.762844 -16.830288
-5.740418 -33.823936 -17.432726
4.232280 -29.234812 -6.083455
6.319389 -36.083035 -12.576825
13.941178 -25.983784 1.688716
-6.598779 12.975247 -9.340630
4.235480 -38.004433 0.898607
1.035054 -29.897009 -3.227641
-11.325488 8.511733 4.679789
4.699494 -24.992849 -7.026412
4.073786 -27.084269 -5.328752
-8.009501 -14.646040 -5.222970
0.500048 -37.532410 -8.433106
-9.744790 -37.381847 2.679137
11.816632 -3.556266 11.957047
15.862669 -34.078777 -10.814660
9.125192 22.865776 -9.920010
12.918351 -0.602510 10.459295
5.492405 33.152786 -0.241441
9.556497 -37.296719 -14.032223
9.119375 -37.706432 7.067072
-8.849678 17.207664 13.361762
7.071095 -24.626549 -11.302380
-12.323640 11.821563 0.923592
-1.558820 29.552681 -5.224331
16.687229 -26.089592 -3.583401
16.537006 -24.025576 -6.014483
4.799083 -9.808256 -15.322441
-2.910935 28.646284 -4.806004
8.569179 -10.206310 2.258493
7.368450 -8.290859 2.857919
1.460114 -16.660477 -13.202517
16.870504 0.498522 4.000487
7.761624 -37.272213 5.847328
16.486416 3.799697 7.926709
12.417768 -2.328485 10.709667
-8.584434 -22.095505 -3.894536
3.935370 -8.866182 -16.214540
-5.812352 -1.720751 -3.850067
6.129388 -28.354467 1.482018
5.697200 -27.843031 0.641190
-12.758883 15.894704 6.683740
-6.191542 -6.200268 -7.626733
12.223439 4.426913 -9.397151
-1.048709 32.177013 -8.302400
-10.647237 4.575645 13.945031
13.520177 11.754873 -2.426901
-16.442644 15.963783 7.773669
-15.876187 15.999229 9.295994
3.576573 -18.359161 -9.732075
10.437311 23.810217 -9.616400
-11.969336 4.174016 13.565778
13.090678 12.685495 -1.726796
-3.437122 -37.066071 1.930462
3.956214 -18.178059 -9.257785
-11.701314 -37.502750 -5.726964
-6.479915 -37.653603 -10.504692
-5.534215 -12.749061 -1.241066
-11.586269 19.814619 9.233814
9.873892 -24.997805 1.259886
-11.350206 -33.204506 -9.394423
0.173552 -19.493200 -13.051723
-17.416147 14.890655 9.870705
13.826920 -34.412834 -13.033983
10.320408 -36.125507 -14.019909
15.757054 -34.210098 -11.182321
-4.204175 -35.276691 2.635503
-4.292846 -36.489666 3.961526
-18.051624 14.158899 8.828695
17.897423 -36.072315 -6.096228
-10.939678 15.203404 1.540957
-13.760737 10.729508 1.758730
2.116887 -19.335075 -10.994407
0.783706 10.740942 -12.926443
15.783864 -25.161640 -3.513949
15.836763 -23.507767 -5.461733
-6.596386 -3.186107 -3.823162
15.846970 -28.153738 -9.582350
14.063253 -20.004845 -0.721689
13.791870 -20.080019 -0.188710
-10.192241 17.721054 12.671911
6.980667 1.959198 -12.580662
6.009253 14.856424 -12.213345
14.951970 -20.056770 -1.489309
-2.908255 5.965359 -12.241202
-7.291820 -4.599650 -5.869146
-0.183233 -5.240404 1.934684
14.725023 -31.785465 -12.317892
15.024059 -32.104366 -11.077377
-7.877931 -28.274080 -1.605176
-8.180698 -4.587245 -6.376230
14.274234 -20.770372 -0.905742
15.110271 -31.155613 -11.535690
-5.018989 2.199148 -10.641130
1.512789 -3.486856 2.029713
17.532036 -29.498241 -7.006529
9.934833 -23.083838 1.295543
15.840126 -33.466747 -11.206696
-13.341834 2.767036 10.951060
1.585019 27.183067 1.002564
-0.972677 30.075645 -7.090743
15.464523 -32.584129 -11.563696
3.437730 33.891296 -4.207071
6.358071 23.399477 3.525053
15.859201 -3.132423 7.624037
-13.356901 2.704918 13.083019
-13.265570 16.822351 17.744276
-2.266278 28.972889 -2.933546
-1.430533 30.033426 -2.979221
-5.565330 -5.889443 -2.289243
-5.276956 -3.520623 -0.496864
16.002707 -20.692490 -3.563565
-9.658567 5.311391 8.435940
-1.001818 -29.085888 -1.156259
-1.278821 -30.355696 -0.869817
16.256668 -2.615859 5.366663
-14.571179 4.737815 11.724880
-4.643696 4.496926 -10.878225
-2.393466 2.738749 -12.479531
-2.151914 3.336357 -13.128154
14.999712 -28.072760 0.624623
-2.409198 -10.441254 0.685299
13.809492 6.200618 0.299978
4.997103 -19.604624 -10.521248
6.614223 -31.318544 0.635965
8.821142 -23.101629 -13.293470
13.038934 7.861834 -10.235509
9.189153 -36.498360 -13.351058
-11.833327 -33.860374 -8.678032
-0.303859 -37.026756 -5.576214
11.924761 25.749739 -7.026774
-3.012527 -12.670691 -15.053815
-11.215525 9.868992 15.308261
-6.879570 10.192282 -1.860647
-0.669931 -14.585849 -0.138272
-9.821798 -32.598644 0.456594
-6.107016 9.624067 -2.581948
7.157593 -36.358551 -12.497863
-9.295040 9.109587 -1.673533
-5.933215 13.014153 -3.136365
-9.301323 -31.411669 -13.994003
10.123158 -25.232815 1.738972
14.071533 5.739041 6.567173
4.548936 -36.753464 -3.430419
5.973946 -18.625328 -11.802650
11.420012 25.795437 -6.018028
3.162123 -17.492874 -11.839361
4.437631 -32.320961 1.129972
8.007837 17.526304 -10.375797
-11.640653 17.184357 8.026093
10.597312 22.386465 -9.386930
4.645935 -31.842463 1.341504
10.888006 2.807576 0.447758
3.091676 10.831791 -13.046281
-18.632458 10.506080 9.381042
4.363558 -23.752747 -1.451087
16.800491 -32.861202 -8.182250
-10.743346 18.767763 8.798990
7.851883 18.128023 -9.470817
-4.933037 12.374386 -4.562665
-7.012882 -36.943485 -13.449037
-9.981646 -33.308670 -11.842299
-3.266672 -12.612230 -0.332201
-13.870378 4.683172 13.304251
-2.425646 -32.212482 -15.349459
14.248183 -12.800007 -9.018677
0.267607 24.391670 -11.008661
13.452394 -2.867388 -1.313492
15.123083 -10.072324 -7.162556
-1.556956 -3.194991 -14.940187
-4.901801 -27.948280 -15.061360
5.632349 18.486147 0.106736
-16.142216 9.995934 12.628588
0.606577 32.208916 -3.947635
0.181411 22.205868 12.920048
-10.097653 16.501444 16.072853
-14.196714 12.224927 15.949357
-0.492182 21.405333 13.773278
13.124808 2.193299 -9.182178
-10.879390 -32.283085 -9.665874
-11.264904 -30.619671 -11.752818
5.451711 -31.696926 -8.620234
9.714777 -10.825351 1.769355
6.430392 -14.159630 1.341885
5.486284 -16.094322 1.495572
3.769457 -13.993467 0.882832
-12.081113 -34.561878 0.376716
1.868636 -24.402866 -4.908417
2.024224 -30.399582 -9.528379
2.282754 -28.566807 -7.942149
-13.253026 -35.061749 0.179601
3.024018 -26.995758 -7.902961
1.937973 -29.172113 -9.085594
-0.656000 -31.823423 -14.568375
7.329527 -10.808131 2.486775
1.630139 -26.337481 -5.917538
1.538125 -26.151628 -6.153851
-9.084544 -16.818108 -7.500016
2.734692 -27.785408 -8.521564
-1.660597 -31.347893 -14.141040
2.726635 -28.716637 -8.327895
2.010888 -25.069298 -4.740543
2.247977 -25.837894 -5.104706
0.205097 -37.018101 -14.538082
1.478296 -24.116081 -4.336623
-8.678802 -18.274782 -8.909318
2.253791 -29.913834 -9.291752
-1.144862 -18.029373 -0.260342
10.366747 -12.470316 -13.643476
2.271873 -26.136852 -5.854927
8.697514 -36.203671 4.997789
0.750837 -31.432539 -13.836545
8.844642 -11.783607 0.706247
-4.993814 6.086101 -9.585878
-6.504032 -28.996944 -0.252734
12.058105 -3.814540 0.576462
-18.221991 12.736479 10.236259
-0.594029 0.021177 1.032914
-9.704412 19.604296 10.557167
-0.107458 23.106663 10.640960
-1.268216 29.976439 -2.486618
2.528759 29.812469 2.330959
-9.613893 7.628813 12.237784
-17.250380 11.785758 10.680026
-7.517348 -34.828777 3.577253
2.816107 17.493034 -0.943056
-7.318909 -31.487087 -0.221442
-13.168830 -36.611126 -4.484980
-8.094101 -35.892704 -16.015457
-15.550434 15.272391 13.121503
-10.334531 -31.301170 -11.382439
8.852147 -34.804939 -12.422701
-9.960842 -35.359444 -14.412905
15.918847 -4.111290 6.466092
-15.100077 6.078038 8.259839
-12.024076 -35.936607 -8.224423
14.355985 13.239875 -7.098036
-15.631581 3.502482 12.082560
5.865212 -34.969448 -10.852696
-11.537873 -32.513355 -5.464879
-1.783067 3.948112 -0.124321
-1.794093 18.011978 12.329544
-6.992050 9.216716 -2.885846
-9.759453 8.949594 1.601666
-3.597938 -11.349472 -14.155898
-7.145137 -35.133289 -17.482553
5.722707 -23.722618 0.374754
8.675137 -30.863256 -11.543078
11.360372 -0.795508 -11.838641
-11.217290 9.451736 1.411152
-7.035259 12.794542 1.445946
1.513577 -24.265011 -11.738348
11.492897 0.907637 1.483499
-0.694064 20.709513 -7.121284
-1.240861 23.909761 -10.695507
-11.760823 -34.244091 -6.006120
-6.611344 11.722105 1.247977
-11.012523 8.386167 14.524577
1.067797 4.334444 1.078639
-5.346759 -18.337643 -13.592058
0.088367 -23.241470 -13.251522
11.040676 1.341931 1.024950
-15.220244 13.310966 14.821016
10.390943 13.365422 -10.970040
-1.486819 -9.778896 -14.581987
-16.731520 8.629604 9.897305
-5.905157 12.085142 -11.481414
-9.545611 10.887658 10.520170
12.458115 9.982263 -9.818870
-18.293413 9.076162 7.898232
1.795711 -35.316975 -7.344979
-10.187871 8.797247 1.990339
1.336779 -8.966961 2.127663
-10.897027 -37.009254 -10.831983
-15.816754 16.707966 11.656953
-7.513072 13.334992 6.642076
-5.395916 -0.744746 -10.462657
-0.889858 35.754375 -5.199217
0.544397 19.037386 0.365509
2.467279 18.965714 2.429279
1.381021 19.408401 2.976995
-9.293477 -21.748703 -11.556706
2.087014 -22.881441 -4.953707
3.596140 9.499439 1.747449
8.886119 -36.291092 3.279376
-1.787308 -30.108885 -0.739777
16.396681 -24.224106 -2.129311
-15.444503 7.827502 4.181006
-3.242773 -28.298588 0.790767
-4.025855 -28.860167 -0.737534
-15.564390 7.360776 4.160300
15.918485 -22.711966 -4.145692
9.661870 7.816604 1.155976
-2.488420 -27.344589 -15.033034
1.413957 -10.195284 -15.512250
5.476192 -36.548161 -0.519348
-5.588295 10.072268 -2.542137
7.075012 -37.343842 1.842905
-6.072948 10.681701 -0.950572
14.261098 -2.463236 7.009560
-11.969782 -36.162060 -8.670033
5.725968 -34.794590 -11.338722
7.171649 -37.231369 -0.203986
-1.314279 17.700199 12.438108
-7.631588 -34.887272 -16.917032
10.891343 -37.116467 -4.252568
-0.251337 -29.958792 -14.217401
-8.163397 -35.722588 3.435363
0.271404 -14.562826 -0.382262
-8.084913 -31.501598 -0.058158
4.369315 -18.618053 -0.521756
-0.675958 -10.725683 -15.822232
-15.240823 8.599615 8.993405
8.514085 -37.391380 -1.863912
3.090269 -10.265494 1.782128
6.751613 -21.712982 1.088345
10.069906 -29.991318 3.323746
13.215308 2.350707 3.747799
-12.214795 -37.061035 -11.886015
7.572362 -18.238701 -11.474795
-4.432313 -4.095818 -12.254678
13.619741 1.243174 2.577559
7.845142 9.425240 -12.011320
10.052412 12.083166 -11.685741
2.200332 -10.344314 1.057552
2.752842 -23.073076 -10.928587
-10.489740 -35.937397 3.367496
1.936935 -36.638645 -8.699329
4.285016 -37.006649 3.534284
-5.104281 -3.311926 -11.893012
-0.453750 -8.987040 0.474094
8.321106 -18.927748 1.515651
-8.348774 9.543438 1.904854
11.296529 -1.281809 -12.676302
-12.247684 18.725843 16.078272
-4.832505 10.620132 -11.870085
5.912717 -21.478386 -12.224164
0.850690 -37.507530 -7.827612
-9.307109 -35.807503 3.421614
-8.926966 -37.735367 1.160960
0.332315 22.088335 11.930911
0.554846 18.193260 8.120459
16.760246 -33.579815 0.177214
-4.100055 -6.904176 -14.097322
15.784001 -36.621639 -3.043301
-11.846650 2.605315 9.059195
-2.655528 12.862909 -2.141691
-3.360939 12.884855 -2.958214
-6.702015 -4.033504 -4.199522
-8.869303 -26.453548 -2.029879
12.986309 -5.434964 -2.314933
17.001614 -26.457617 -6.355433
16.440857 -25.066267 -6.186590
-6.493366 -3.684402 -6.438233
-16.868816 14.969728 9.349118
4.137073 -33.905174 -6.231153
12.354006 -4.500519 -2.567214
-14.939377 6.281217 14.506376
16.891556 2.312773 9.233168
-6.173244 -6.053707 -9.711897
10.003735 -10.102032 -13.925633
6.736414 -23.709011 1.070375
0.494752 -31.514626 -13.862823
12.794740 6.015159 -8.988971
-18.024395 14.467399 9.830640
-11.932621 10.966385 16.406658
10.451822 -5.112310 1.509118
16.402946 -28.485767 -9.832907
-15.482449 11.515327 11.523734
3.634749 34.323776 -1.917299
2.500824 2.318311 -12.900833
-9.486707 17.117691 10.935966
13.042378 -11.824323 -12.080785
13.194586 -24.508198 0.578436
-9.508570 -25.017467 -4.779592
15.113545 -24.723562 -1.483725
-4.706896 -3.463242 -1.397451
-9.969776 -25.349165 -4.516622
-5.402313 -5.396355 -0.012293
13.079245 -37.743340 6.535855
4.942539 -32.339039 2.678299
15.245780 -24.186728 -1.023839
-5.557954 -34.776001 3.024551
-12.470551 19.919777 11.291762
5.506014 24.334852 3.845603
-0.000503 -0.287899 -14.730210
-12.811769 19.764597 10.393444
-14.861889 2.023651 10.967416
-0.713991 -15.694882 -0.181135
-7.218526 -36.362747 -0.224315
-2.988096 -11.083879 -1.075283
4.777995 -18.798347 -0.399566
12.463823 4.027119 -0.384650
-9.396523 15.608871 10.926069
5.492476 7.612362 0.452435
10.008101 -19.184967 -12.580449
6.341165 -4.096416 1.859004
8.665146 -5.467686 -14.884068
13.903116 -14.079123 -11.354829
11.717616 25.530828 -8.290277
17.221531 -31.327465 -3.651030
-10.816483 9.885473 -1.727503
-4.526526 -2.416410 -11.766147
4.989126 -2.142158 -14.982992
0.378585 12.741400 -0.175824
-18.551821 10.955944 6.870857
-18.417873 9.709044 6.940385
16.678453 -35.582973 -11.527343
9.044959 -0.042182 -12.735169
18.161314 3.343429 5.835715
12.325189 -31.107479 -12.328802
-2.907913 -37.044983 -0.472475
-15.689460 12.730581 3.110933
-11.654984 12.729024 -0.108969
-9.938795 8.393046 6.887885
-0.572300 19.938034 -3.877297
-8.916238 -21.037481 -7.322526
15.306149 8.718967 2.260962
12.411954 8.655821 -1.950755
-3.268274 -33.390537 2.123275
12.978624 8.028399 0.233065
17.764444 -0.125412 8.580934
13.291375 8.937899 -0.892295
12.583123 8.307106 -1.293773
-5.983880 -26.408571 -0.399363
-1.271242 8.902754 -12.445359
-8.975610 11.864954 -4.745186
-9.530781 14.679218 12.399832
15.028421 -2.490334 10.515811
-17.447311 14.699009 5.743305
17.194431 1.806938 4.908823
13.326777 2.294489 -2.755793
-3.002808 -25.511702 -1.258029
-18.252985 10.252746 6.492792
-17.437834 11.524073 6.264907
-6.727995 -20.249065 -2.749759
-9.935295 -37.141285 -12.509015
-6.015282 -35.211700 -17.622234
-6.639746 -37.347919 -16.065487
-6.549602 -10.685095 -11.095649
8.280622 -26.265310 -11.653530
-6.497729 -14.801374 -2.476218
16.821547 8.087818 -1.089907
-5.915245 -13.230071 -2.632682
14.374218 8.264380 2.883845
18.112947 8.156801 -0.208484
17.133118 8.754152 -0.914219
16.540655 8.503285 -0.300232
14.221770 -13.158516 -9.643512
4.683844 -36.109043 -6.182183
-3.782346 -17.960770 -14.773462
8.309696 21.216112 -9.503019
3.959296 27.842339 -12.744474
15.351576 -1.308656 4.479203
4.952438 20.199810 7.210715
-4.238545 -12.258027 -14.136623
9.375434 22.501806 -10.637238
-11.750782 14.006524 16.475756
13.567895 2.688964 4.423302
5.968114 15.518303 -11.673039
12.612923 1.252241 -4.596445
-8.522442 -29.947294 -14.442459
-9.944029 -29.606785 -10.095486
13.023531 -5.128162 -12.010567
12.099272 1.888459 11.322792
4.006264 -37.444832 -3.701668
-2.646106 -18.426426 -14.546426
13.219091 -5.877784 -11.367647
-10.300591 -31.619848 -8.710565
-9.298906 18.348131 10.379767
9.822381 -5.737605 -14.159527
12.435720 1.227246 -4.681155
-1.654309 -30.876648 -0.972763
14.103115 -0.599053 -7.175295
11.367853 -4.628682 -14.090389
-9.409786 -30.343140 -12.309148
-11.645905 -33.200855 -9.010927
7.931592 -37.313999 -6.173071
17.271477 5.745314 -1.290313
-11.489843 13.759888 2.230055
10.041061 -11.662761 0.566882
-4.212999 15.855450 -7.144289
-2.337817 16.572269 -6.121076
-3.956955 -27.411551 -15.180527
12.974486 -17.241543 -0.238672
4.830409 -10.329176 -14.765320
-6.717741 -29.333168 -14.418703
-2.995098 -19.500904 -14.819570
5.313547 -24.121168 -1.942449
4.052767 -12.330591 -14.869097
13.332482 -0.350625 6.696314
-6.823652 -29.472790 -14.664052
-1.989027 -17.043123 -15.226502
10.098205 30.065451 -7.210109
10.784553 33.865231 -3.643708
-12.233115 9.180871 2.228233
-11.914927 8.943743 1.698147
13.469514 -0.732411 7.662607
-1.364135 -32.053066 -0.818892
0.307911 17.422607 -8.809997
-1.746449 -33.095669 -0.922341
-14.962284 10.774612 2.751250
-13.548933 10.468102 2.064030
0.834256 11.131714 -13.196508
-3.379382 -36.565342 2.222118
-9.382513 -29.497131 -2.291277
-9.231800 11.155348 8.807056
15.331778 -2.485472 11.780115
-2.874912 9.846934 -12.425073
-6.676267 -8.581253 -2.687135
-4.871522 9.286177 -11.645060
9.760217 -15.917607 -13.156382
6.212423 -24.905273 1.199542
-9.610298 13.421150 -0.890654
-5.971487 -37.157513 -5.029166
-4.678119 -37.479553 -5.189942
11.904383 7.487621 -1.742421
15.193436 -34.782589 -11.987603
-10.827495 11.858694 -4.432333
2.375140 -21.231390 -12.763499
4.500886 -9.328176 2.630241
2.268095 -19.401592 -13.176291
5.901348 -1.235926 -13.857359
17.375027 -35.348927 -9.373938
10.552252 14.847377 -9.855666
4.414379 -33.451221 -5.842580
-10.277069 11.337169 -3.619299
4.563632 -19.886311 -9.540512
-11.196970 6.336722 4.284578
5.179082 -29.044102 -0.863226
1.044239 -8.390135 2.799554
10.916918 -17.988167 1.027314
8.168220 17.804808 -2.345129
7.284564 -37.236259 -5.681870
-4.530833 3.578961 -2.559894
-15.781752 4.410479 8.992416
-0.013986 -33.279854 -2.630159
-0.354877 -32.550510 -1.739910
-6.479443 9.626668 -9.987277
-3.182626 16.023649 -8.870732
12.729725 0.518032 -9.866919
9.588489 1.203329 0.927117
-7.084424 -12.563302 -11.729752
-5.171347 13.419361 -11.476763
-9.730579 18.600468 16.061211
6.707674 -29.802788 1.196148
7.476699 16.162048 -10.988739
9.995201 13.517251 -11.658248
12.485359 5.231715 9.262894
-2.123152 23.514214 -0.381478
9.276615 -35.499485 6.661424
6.657117 -10.108231 -14.613149
-0.248758 22.002602 13.807019
-10.075852 16.866493 16.766439
-1.342172 15.958756 -4.410397
-2.564216 15.554413 -4.456724
12.145270 -35.902050 7.425517
-6.674857 -1.059145 -7.433229
11.816093 0.408096 -1.087265
-9.957922 7.963875 13.421844
-2.180625 -23.014669 -0.337248
17.132671 2.704463 5.353235
-4.101452 -20.664188 -0.340666
-4.584803 14.493170 -7.694561
-1.798461 -22.859167 -0.460716
-0.565934 -22.555490 -0.959740
-3.937411 -19.888720 -1.421502
17.409153 4.610563 3.901735
-15.780178 5.021369 7.822698
2.387854 21.335398 -11.327392
2.384025 -26.580708 -8.239630
-15.689626 5.310623 7.952292
-12.215914 4.536808 4.065883
11.528618 3.912654 10.492090
3.991220 22.958666 7.474966
17.844494 4.544040 3.494735
-3.663528 -21.760523 -1.184429
-9.271922 -20.029959 -10.190480
-10.426744 5.623046 4.497973
-2.024893 -23.199923 -1.681752
2.532137 -16.361450 -1.199917
16.869009 -26.059504 -7.681170
-7.980016 -26.445894 -2.227763
-8.655835 -27.736668 -2.784162
-3.533686 -20.695343 -0.598380
-7.782218 -27.457539 -2.262492
-9.617624 -22.031372 -8.488403
-6.835172 -1.984648 -8.017312
-2.003169 -37.314705 -17.612883
13.412699 -5.242379 -0.805613
-0.925076 -21.857244 -0.484489
16.583921 -27.118410 -6.201251
9.096888 -13.521671 1.452348
17.092218 -28.098848 -5.519925
-3.020510 -20.598152 -0.656333
-0.612589 -37.246510 -15.259408
-1.062515 -37.130157 -15.586688
18.057507 -29.633884 -3.411235
-14.900259 7.146726 13.642340
4.760914 -35.197308 -8.489899
-1.916840 33.938843 -5.681857
-10.196573 7.477129 5.108683
8.835343 -33.051979 4.954717
7.571196 -14.999983 -13.057955
7.908227 -13.976268 -13.218573
7.480874 -33.868481 5.067192
4.135286 -12.099852 0.873160
17.620630 -33.832798 -5.761827
-5.616182 -10.931412 -1.487689
5.371630 -34.884407 4.701421
-6.942690 12.680659 6.702904
-9.280439 -30.392639 -0.937274
2.214458 -21.624533 -11.053168
5.847535 -34.600918 4.088729
5.907211 -34.369709 5.302255
3.902989 -10.293001 2.931039
17.076773 7.425418 4.166859
-2.464090 -20.177322 -14.794313
1.215164 -22.972265 -10.950418
0.050427 19.675621 -6.123993
-4.935446 -14.359786 -14.223578
-2.701885 -20.502058 -14.641727
16.483007 6.369922 2.635888
-7.945020 -15.699658 -10.466093
13.864240 -34.339958 7.334513
0.854342 -27.750446 -12.791800
-8.608523 -32.945576 1.530906
7.899958 7.606275 -12.884930
-7.756145 9.375075 1.118199
-0.878705 1.208315 0.567860
12.479400 27.193445 -5.208506
-3.933481 10.238137 -3.180970
-4.879133 9.789665 -3.802854
-7.536460 -15.106234 -3.772457
-11.700068 6.326546 13.309541
0.907184 22.352865 11.766677
-0.422456 -36.725140 -5.244432
-5.178774 -6.321328 -12.641150
12.843948 -25.249104 -11.362142
15.097448 -36.620838 -4.453097
0.581018 29.547672 1.000861
7.947936 21.026884 1.754245
-0.905862 34.349751 -5.624582
13.694108 -37.206509 -3.238967
1.543283 22.621326 10.176113
1.388817 22.541254 10.634319
0.403426 22.308968 9.536829
-7.149602 13.936958 -4.803647
-6.354233 14.630073 -6.640892
-2.041612 13.562425 -2.343076
13.406703 -36.350147 5.306615
-1.121088 14.242949 -1.856574
17.812630 -35.346931 -2.167697
2.784800 22.642675 9.850228
17.837042 -35.997929 -1.727070
2.883106 -7.867547 -15.485266
-17.461340 8.695427 5.751339
1.151326 35.125591 -5.209831
3.961855 10.869898 0.316439
15.626480 -37.951012 -0.617056
-9.942567 3.698469 11.335030
7.453372 -26.376148 -9.853945
-5.681705 -12.666293 -13.197793
0.272508 -30.871649 -13.195741
-8.825521 -25.298172 -2.834176
11.299130 -37.185505 3.421537
4.426486 -32.771950 -7.529546
-13.876069 6.552655 13.510525
5.116769 -11.983572 -14.526561
-7.366783 -24.727959 -14.457452
-8.154307 -37.391548 -7.425420
17.222488 -37.471996 -3.463837
17.941189 -37.389301 -3.599100
-7.779190 -36.514969 -7.321273
17.227076 -33.652725 1.302374
-10.158608 -37.287376 -5.884095
-5.675178 -36.872154 -8.477081
-10.538357 -36.739552 -3.668514
-4.386574 -36.546715 -9.893901
15.081953 -36.899181 -1.874255
8.150726 -37.388599 -6.666731
9.162930 -12.225870 2.152974
12.056200 -36.744793 0.706162
-6.855932 -5.423828 -8.603430
-11.638628 15.419379 17.411276
-3.549336 13.102458 -3.417104
-4.804081 15.150487 -4.644395
-9.342828 -34.659637 3.229201
1.854791 -35.436840 -8.470959
6.976260 -7.534186 -16.054504
-16.186596 9.317510 11.502678
10.408235 26.710987 -10.227820
-2.369989 -8.441620 -14.769805
14.312290 5.287936 7.097569
4.615779 -33.739655 -0.723155
7.350709 -37.448883 -1.457405
5.975672 7.451075 -12.314707
-6.545254 -16.193916 -12.424644
-1.570807 -36.950100 -5.835958
-9.138122 13.962283 -4.871199
-8.300861 -10.006804 -6.268943
5.524235 5.997876 -12.786102
-4.158438 15.611291 -6.370737
12.455587 -22.165266 -12.129383
13.882710 -6.809291 -3.724499
10.717395 30.690031 -5.519798
8.366213 14.964516 -1.279343
-14.033904 13.003175 3.697442
-0.773653 28.139614 -10.220086
10.950914 -9.969232 1.627982
12.514416 7.191246 3.371244
13.693499 10.760461 -1.479722
-8.638856 -24.010138 -2.852193
13.517950 9.562783 0.694887
18.297722 7.017364 -0.539647
14.054944 5.227014 9.136781
7.732178 -34.245243 5.832105
13.028960 6.905899 2.815212
13.541621 -0.236536 -4.363976
5.368515 -11.822535 -14.303077
-2.083703 -35.524368 1.971913
8.278592 -10.153214 2.496164
-3.090746 -31.179770 -0.369989
-1.088019 -18.262205 -14.886460
-3.562532 6.856511 -11.864680
11.251114 29.993649 -4.202867
0.100523 -34.856846 -0.799535
-1.496409 -19.187580 -14.551847
-2.980219 -2.955342 0.523057
12.641757 -20.837868 0.958335
-3.677109 8.278904 -12.400830
-4.404089 -2.882016 -0.408313
13.294908 0.335532 10.314955
11.320538 -7.930488 -14.414741
9.687953 -26.129395 -12.010932
10.952805 -6.439998 -14.541863
13.784539 -6.981785 -11.043690
-2.745551 21.713999 1.410432
13.874952 -7.189576 -11.905336
13.612000 -0.839113 -4.605481
3.404414 31.429890 -10.588188
7.639279 20.727825 -9.612668
7.390849 3.768527 1.205967
6.326076 21.523029 4.079246
1.980235 -3.081071 1.696644
-3.664501 9.181052 -11.241783
9.026552 22.371885 -9.089814
-13.346262 10.839799 1.626724
5.456394 28.499094 -12.985108
0.337234 -34.796959 -2.222409
13.091214 -8.117630 -10.474436
-11.369029 -31.492214 -7.401267
14.121120 -1.405346 -4.580985
-6.244580 -16.412321 -12.689096
1.848298 -31.865286 -6.022615
16.157795 -3.172348 8.436083
10.949585 -0.742297 0.186713
8.608091 -19.506899 -12.769326
-5.170929 -16.189014 -13.616062
0.824471 -34.689316 -5.345634
-5.487629 -35.001938 2.339280
6.501776 -17.493992 -11.810587
-4.461183 -30.622194 -0.049770
13.425556 6.212501 -2.960392
-16.775343 10.429569 4.169971
7.025576 11.340400 -11.733431
11.792558 23.758272 -4.964267
-0.562637 -11.583639 1.401743
-14.561837 6.795875 4.248253
-6.031452 1.679321 -8.519650
3.553594 7.701271 -12.783787
9.182508 16.160748 -9.941796
8.495963 -19.374744 1.278467
15.547496 -0.268444 11.900507
-4.645360 0.907877 -11.418043
-7.735976 10.353949 1.567701
-6.542968 -36.153675 -18.232698
6.202781 -37.166176 -3.094553
-6.590385 -37.116043 -17.066181
-10.627426 -36.127285 -13.292295
-0.949803 -11.246599 0.327770
7.510899 -32.929104 -11.557819
-6.745058 4.627754 -5.623536
-10.041542 11.195636 14.148140
-1.375385 19.777412 13.079044
12.495317 10.976624 -9.011929
-5.032292 4.487151 -7.115549
5.625269 -20.117846 0.137507
-8.809498 8.633158 1.089721
3.545120 -17.640556 -0.688876
-6.038353 5.280569 -5.184198
12.442234 3.861004 11.434746
-4.111328 -15.389802 -14.100649
15.693600 -21.566734 -6.807165
16.329679 -26.970789 -2.057350
15.616264 7.577029 5.120468
-9.832396 -36.125130 -14.084176
10.328196 -15.137102 1.396563
-14.480135 6.525764 4.770218
10.382933 26.351967 -9.140593
-9.588353 11.478058 14.201974
-9.644664 -26.152538 -10.187922
-11.035884 -28.858776 -5.679881
13.431302 -2.723226 -9.987861
9.713596 -3.320405 0.687736
-3.057833 -9.745514 -15.309908
10.032437 20.220755 -7.305621
1.544489 -9.366233 1.823530
-16.968952 8.256968 8.816940
7.363041 -31.060259 3.167481
-16.518076 7.694595 8.457408
-2.229591 -11.603883 -15.320611
0.726299 -13.202354 -14.333591
-10.924088 8.003645 3.432117
-5.337667 1.011984 -9.666401
-3.616236 4.197818 -0.833021
13.196534 -30.376526 1.343390
12.921254 -29.176947 -12.353596
-4.682181 -16.293669 -13.809080
0.585142 -33.473118 -5.227717
-6.164983 -17.588121 -14.080599
-5.975549 -17.786797 -14.030012
-11.282001 -32.504047 -9.032681
-9.714486 -31.134501 -12.362327
5.227513 -24.632107 -1.147535
-5.066571 12.414755 -3.453856
-5.535789 8.604044 -6.680058
-18.480303 14.137712 9.314143
10.630368 -23.014950 -12.018090
-11.469925 14.553505 2.882752
-11.363301 -33.614601 -8.183106
11.399499 7.218015 -10.803238
12.345682 14.958577 -3.713959
13.530354 0.736493 9.074568
-1.733670 27.867508 -5.360518
12.643179 -3.646468 -1.728430
4.359910 -1.089351 1.736946
4.129755 31.354048 1.700248
-3.763108 -18.227524 -0.855975
-6.694395 -4.918851 -5.405779
-11.773993 2.914666 8.925100
12.844903 -4.164639 -2.185018
9.274530 2.609062 -12.938667
-14.035780 2.699220 9.252186
-2.659751 -36.657990 -11.756192
-9.315162 6.187169 8.108592
-12.694853 -37.191505 -2.452810
-0.672909 -37.113743 -14.521565
8.230288 -27.877810 -12.113708
12.650325 -2.631673 -0.709824
13.283284 13.888328 -6.747490
-9.316890 7.123872 10.805985
4.042626 -13.036829 -13.370246
-12.628624 -36.564983 -0.172746
1.361301 18.818594 10.010244
-1.898199 -2.366495 -15.193327
-8.968031 -19.733509 -3.669229
-13.845951 -36.334873 -0.357586
-9.280160 9.252950 4.988179
-9.969399 3.443028 11.248247
4.065638 13.877925 -12.148960
5.273222 -31.306725 -8.787536
6.301027 -27.665440 -11.043573
-9.054953 -19.838520 -4.461905
-0.257991 22.604095 13.040735
2.474280 -24.623697 -3.462438
8.861684 -12.874896 1.547242
-2.027557 -17.367439 -0.707977
4.305998 -12.603526 1.564605
2.804091 -24.465010 -5.184874
13.732662 0.528467 8.355733
-0.090590 -16.360033 0.178392
-8.777257 -16.320093 -7.725460
2.696222 -26.292170 -6.020710
17.345394 0.534383 5.685033
-15.330890 12.576292 16.455736
13.659960 3.419081 11.663404
11.913226 -0.373303 -1.425471
4.334037 -19.895472 -0.788528
15.677135 -11.118873 -7.064096
-3.182523 15.569339 -9.817946
14.778969 -14.892161 -3.030842
-12.947860 3.562124 5.259658
-14.510389 3.910018 7.599189
2.592139 -27.644493 -5.605971
-8.738859 -17.446562 -5.996671
-15.523377 18.080519 9.155724
-14.541262 3.444370 7.150825
-13.618062 4.886523 4.606598
-9.692414 11.340369 -6.208076
1.353629 -3.609877 -15.344683
14.710860 -37.564869 1.242686
7.956638 -0.552018 -13.576503
6.836135 2.040463 -13.304571
1.240360 -30.246456 -4.572783
8.452572 1.268994 1.365200
1.138730 -5.589938 1.548382
-2.770977 -3.266904 0.887393
-16.555115 14.165634 4.084745
1.088473 -5.879219 3.039212
7.447351 13.688269 -12.190624
-6.645782 -4.704204 -8.034200
13.394496 -32.455555 -12.664931
-6.444212 -6.231279 -6.000792
13.544971 -32.388622 -13.297560
17.886625 -33.230198 -10.770636
13.767783 -19.395880 -0.146301
-4.538728 1.946722 -10.012332
-9.046350 -17.874365 -5.581764
-8.436495 -6.939311 -5.663627
8.461239 30.986128 -1.043382
-3.555832 20.660168 -1.727396
11.309752 -17.300943 0.156321
-1.921175 20.328018 -2.844021
-8.440370 10.394213 -6.834817
-8.306166 9.511853 -6.957973
-7.295969 11.799251 -8.433916
0.072788 19.425953 5.149326
-14.907060 4.334840 5.022173
9.918783 -1.254782 -13.296413
-4.930275 3.588761 -2.239942
14.076012 -36.163925 -10.354250
-2.379891 19.839254 9.798825
9.500299 28.337162 -1.028155
12.869854 6.174208 3.337519
13.373661 6.850743 2.545909
6.934168 0.228058 -14.056481
6.087668 -37.542450 -3.926828
-13.527720 11.760676 3.022378
-14.271978 11.038463 2.466247
11.639204 -37.373211 -13.999943
10.873332 16.567631 -4.790456
14.792037 -12.487757 -6.243497
1.185307 -26.144022 -2.892612
-8.029136 -18.095133 -3.935041
-12.558779 15.785131 7.974715
5.681475 5.314097 -12.338631
0.545903 -2.998610 -16.006380
16.464136 -36.919731 2.676652
-0.502148 18.684799 8.220546
6.305118 18.952827 1.800246
8.716022 19.864714 -2.339022
13.944228 -0.205253 5.599679
4.716085 -21.032114 -9.013268
-10.672011 12.153410 -3.411583
-4.387411 -37.112511 -5.301341
4.258920 -31.318638 -4.751679
-11.367085 -32.362625 -4.188040
3.540686 -12.043665 1.752547
10.734016 13.163679 -10.625754
4.215114 -29.251825 -0.939122
-6.723116 12.020024 -10.662347
10.059287 -30.664621 3.574246
13.369983 -18.583626 -10.991006
-0.153075 5.648266 0.812213
0.571759 6.745934 0.599203
13.244958 -19.408485 -11.287929
6.785233 -29.824539 1.026039
-8.862278 -26.520939 -12.057109
0.552433 6.356222 1.279850
-10.419853 18.177286 15.535224
-1.010949 6.336468 0.028979
-5.343781 7.065238 -4.278443
1.252587 6.945402 0.037403
2.068651 -36.907658 -11.201107
16.306805 0.285375 10.962415
13.585538 0.902435 -9.632277
-6.631984 9.731981 -9.314610
-3.906783 -4.723510 -13.752548
-7.975117 -24.457382 -13.585014
17.350082 -31.528898 -3.089523
-4.011103 7.552002 -2.880108
-4.177528 -5.394700 -15.007273
-10.120303 10.285484 9.487184
-4.209894 7.108191 -1.755189
9.486764 -12.546889 -13.363160
6.814027 -15.418925 -12.532417
-15.576698 3.389406 9.715970
14.386152 -7.422288 -2.763497
-16.608236 7.541726 13.582200
17.915695 -34.480061 -6.755507
-1.593537 7.014780 -0.259272
-9.773561 15.583284 10.528494
9.676812 21.014278 -3.953536
11.085429 12.611592 -11.083404
3.047869 20.492275 -11.236521
13.625209 -36.824951 -0.250404
16.536367 -37.291298 -12.369521
2.848839 15.757292 -0.649742
11.970404 -33.234097 -14.490070
3.925391 18.550123 1.524863
1.203610 18.281311 4.305278
12.181275 -18.177019 0.181747
1.238141 -29.865099 -4.515989
4.627714 19.334167 0.249218
-12.473265 9.181452 1.920853
0.346573 19.333723 7.676102
-3.041698 -21.701857 -14.879016
-4.597605 15.655834 -7.727258
9.169569 23.664122 0.124056
-10.365334 9.284238 14.675484
7.153024 23.916292 -11.947258
13.106410 -2.504823 7.030452
2.475385 -32.161427 -9.860403
-1.034254 36.771500 -7.544614
-14.659103 19.955076 12.645582
1.531308 -34.904217 -5.409763
-1.768700 13.006474 -1.826288
-0.833513 -0.636451 -14.389692
2.725654 23.251316 9.235338
12.224244 1.250206 -2.050352
-10.445749 9.512009 15.342393
3.525526 -23.748165 -3.455227
3.408428 -24.566536 -5.353209
-7.378203 -22.540106 -13.617348
13.068037 1.190312 -2.644987
-4.438776 -37.003159 -9.834283
-6.704270 -36.750473 1.202891
-11.283972 -34.210941 1.188880
3.732607 -25.957916 -5.088825
-8.609276 -15.544238 -7.528134
3.723881 -22.247543 -2.544656
-1.051535 -15.863235 -0.046023
4.027439 -27.356712 -6.627350
4.211446 -26.056831 -5.484244
-11.197584 -37.734013 -3.198342
3.952667 -23.102154 -2.805180
3.702708 -21.040821 -0.905457
4.034672 -26.485195 -6.808697
3.605418 -26.749090 -6.393433
4.038603 -25.134560 -5.208497
-0.531576 -29.255968 -13.713465
3.888180 -23.078991 -2.888172
3.730233 -21.699018 -0.621073
-0.964346 -14.789150 -0.228793
9.887461 -19.916494 -13.647128
-13.997643 14.287041 16.568901
2.970461 13.158491 -12.976529
2.888359 20.222315 12.379171
9.441188 7.159730 -12.194151
6.283300 -27.896799 -9.581710
5.850168 -27.693455 -8.929098
13.217517 -25.240498 0.430802
-9.683857 -31.060246 -11.221847
1.724767 -30.011574 -12.688560
-15.239891 16.265484 16.987995
13.151113 -5.764540 -9.571464
12.912216 9.289239 -10.518317
-3.110654 21.748777 0.358070
4.458021 20.932802 7.424442
-4.810818 8.961437 -4.124362
1.873680 31.831638 -9.241151
13.296049 -37.577160 -7.584142
-8.177891 8.815548 -2.226285
5.789661 26.449917 -12.827900
-2.263496 -37.117237 -7.784147
-17.775387 8.933825 6.682552
12.929281 -4.222390 9.847249
-9.025444 -36.866104 -0.653832
1.869774 22.907522 9.085213
4.185171 -26.812664 -5.660107
-7.340214 -21.924067 -12.986732
3.540164 -26.057369 -6.289937
-6.865355 -37.961182 0.792887
-1.190171 -8.807648 1.237585
13.382880 -29.521248 1.785844
1.254442 -29.571541 -12.135149
-15.124847 2.825797 12.955719
-0.267363 -10.708135 -14.820863
1.175384 -13.294296 1.530763
-8.296865 -31.184292 1.590144
-1.051062 -30.074051 -13.761525
-10.981136 -34.723969 0.638056
12.694883 0.803914 11.250817
-9.224786 -19.863462 -11.747540
6.821844 -17.680489 0.996892
13.066209 5.685174 -6.735105
8.428917 -22.567661 -12.772898
-0.386145 18.222223 12.131476
12.204862 8.264842 -10.686562
2.129792 -32.110325 -10.312700
9.660154 -35.671204 -13.284281
9.976714 -37.128033 -10.984086
9.070595 -37.153744 2.225609
7.560378 -37.907150 1.497447
-9.505199 9.123167 -2.503443
-4.820190 -36.823212 -11.340859
8.939906 31.156883 -8.165987
-11.766157 -37.665741 -4.365146
-5.364273 12.252048 -0.820086
-2.387334 -14.755574 -0.361406
4.813149 -21.578621 -0.946714
4.655890 -36.751232 -1.501048
4.234942 -19.066874 -0.362319
6.195357 25.483053 1.627798
9.043299 -2.690394 -14.336310
12.430861 -36.865852 -8.425205
-9.383944 8.302081 -2.178138
2.229053 -18.925131 -14.049253
11.552848 -36.439545 -11.855646
17.579517 -36.976513 -4.698404
14.564173 -0.477632 -6.772156
14.681802 -0.631498 -5.450912
-11.037952 6.992867 5.462018
13.519454 9.687881 0.109587
-5.461460 -12.267592 -2.898384
6.811435 -28.655052 0.984827
-6.651820 -12.966777 -12.510586
10.352837 36.828186 -2.655595
-3.451404 14.872905 -9.553345
-3.619703 -21.598347 -13.968328
-0.642908 -35.061237 -0.446181
-0.824381 -20.044512 -13.739833
-0.890993 -34.412552 -0.013061
-11.006319 10.056561 -3.229878
5.214411 -36.019730 -7.734643
-4.626411 -22.759972 -14.738880
-11.089920 -35.099072 -10.434959
-6.312071 9.276663 -8.324186
-3.589276 15.869309 -9.831450
5.115865 -27.448765 -1.685806
17.429764 7.498622 2.168858
-9.742140 16.279324 13.648278
12.917786 0.367533 -9.134140
-9.023004 -25.105604 -11.237557
1.548843 -24.871265 -8.178859
-10.022712 4.819643 4.949349
-9.133882 -20.255489 -7.908534
-9.877115 7.204301 7.320172
16.332352 -24.375284 -9.198041
-9.648224 -19.546921 -8.294304
7.918622 -12.499777 -12.849075
13.220341 2.647185 9.426628
-7.941880 -25.067852 -13.086051
-8.241270 10.967683 -7.228429
3.827311 -22.888683 -7.616741
-8.516617 9.979668 -6.824435
4.700721 -33.937840 -8.455231
2.938940 -23.198498 -8.840364
5.422463 -35.370079 6.115293
15.930578 9.237153 -3.218436
16.156164 9.965396 -2.831530
-1.438171 12.389956 -12.186753
-9.787998 17.852394 15.132730
-3.540260 -31.522179 1.564198
-3.421270 15.678720 -8.299402
13.658459 6.078162 -3.444210
13.366159 1.931233 6.583174
8.033707 -13.060456 2.913033
17.388273 2.658427 3.664503
11.896807 3.487371 10.584311
-9.759032 11.705812 10.920211
-8.804444 11.958113 11.063160
7.216666 28.799377 -12.889091
17.694038 2.229837 4.815715
14.857223 -13.726637 -6.738878
12.408117 4.868753 -4.056633
8.982708 28.071487 -0.100390
0.734423 32.460945 -7.784226
-17.128771 15.583952 7.364800
-10.257049 -30.071861 -1.831138
-9.138238 -21.846357 -9.675678
-0.541596 25.284035 2.541200
-2.805377 32.420155 -6.461600
-11.128074 7.365425 5.745419
-6.552223 -35.848553 -17.158939
-7.852508 -36.810455 -15.808573
-16.019360 8.080738 9.563263
-8.869811 -30.562506 -0.006796
-14.965335 18.191849 17.032419
12.841579 -1.450257 -8.983281
7.402820 -36.788795 -11.375382
-17.231958 7.828371 8.818203
17.007118 7.375919 4.397001
-5.001127 -19.812183 -1.846498
-0.598771 -23.328876 -0.508021
15.596636 -21.397305 -8.254594
16.636410 -27.893177 -1.490785
-7.629867 -34.554218 -16.951578
-3.869021 -12.417267 -14.301274
-2.489610 -12.538356 -15.116678
-8.152575 -36.252953 3.059650
4.599922 7.471476 1.508401
-8.798936 12.810471 -5.654738
5.086499 -33.789898 3.132694
5.607924 -31.178307 0.224801
-6.445827 12.847085 -7.815944
-17.556921 8.614532 9.685885
5.258267 18.701099 -1.250216
14.968844 -31.017653 -12.029848
-14.726454 4.583210 7.848967
7.832999 15.777938 -0.912746
-3.499464 -7.848074 0.486970
9.612735 14.207608 -0.661659
-2.358549 23.993557 -0.380101
-1.873107 20.882172 1.094625
-5.894069 -28.989727 -0.432694
-8.908259 -20.015362 -5.635456
-9.593589 15.072371 12.347528
1.580059 7.950218 1.328206
3.500586 31.431662 1.735416
2.773586 -21.302023 -8.457923
14.655724 -0.736162 -8.456668
4.657158 -27.024418 -1.170822
-1.506416 15.825584 -9.651846
15.006335 -15.088303 -7.002939
-6.600693 -4.305319 -9.316079
14.695553 -25.044373 -10.329110
-7.212670 -8.005872 -5.370300
-2.442221 -2.933850 0.919166
-4.136597 -19.412624 -14.677477
-4.122205 -20.828278 -15.377868
-3.513794 11.590947 -11.824538
2.379541 -23.451792 -11.660808
6.371803 4.681585 -14.042955
-8.492903 -18.048172 -4.676053
-7.042123 -7.360330 -4.314935
2.638359 -23.386547 -10.460743
-8.671445 -28.911198 -1.377802
8.321454 -13.294171 2.089547
16.884731 -28.222433 -5.711756
-6.929493 -2.208684 -8.456141
